2.731873168945311932e+02 2.732361145019531250e+02 2.732849121093750000e+02 2.733331604003906250e+02 2.733813476562500000e+02 2.734253540039061932e+02 2.734679565429688068e+02 2.735021972656250000e+02 2.735309753417968750e+02 2.735560913085938068e+02 2.735768737792968750e+02 2.735961608886718750e+02 2.736121215820311932e+02 2.736270141601561932e+02 2.736364746093750000e+02 2.736459045410156250e+02 2.736532592773438068e+02 2.736606445312500000e+02 2.736672058105468750e+02 2.736736755371093750e+02 2.736838378906250000e+02 2.736953125000000000e+02 2.737040405273438068e+02 2.737108154296875000e+02 2.737154235839843750e+02 2.737172546386718750e+02 2.737210693359375000e+02 2.737297363281250000e+02 2.737388000488281250e+02 2.737502746582031250e+02 2.737617492675781250e+02 2.737759399414061932e+02 2.737901306152343750e+02 2.738080444335938068e+02 2.738265991210938068e+02 2.738478393554688068e+02 2.738701782226561932e+02 2.738949584960938068e+02 2.739216003417968750e+02 2.739512023925781250e+02 2.739848632812500000e+02 2.740206298828125000e+02 2.740618591308593750e+02 2.741030273437500000e+02 2.741435241699218750e+02 2.741839904785156250e+02 2.742217407226561932e+02 2.742594299316406250e+02 2.742922058105468750e+02 2.743240051269531250e+02 2.743539428710938068e+02 2.743830261230468750e+02 2.744111022949218750e+02 2.744383544921875000e+02 2.744666442871093750e+02 2.744964904785156250e+02 2.745234985351561932e+02 2.745420532226561932e+02 2.745602416992188068e+02 2.745755615234375000e+02 2.745908813476561932e+02 2.746138610839843750e+02 2.746371765136718750e+02 2.746515808105468750e+02 2.746639404296875000e+02 2.746748657226561932e+02 2.746850280761718750e+02 2.746958312988281250e+02 2.747072143554688068e+02 2.747296447753906250e+02 2.747704162597656250e+02 2.748094787597656250e+02 2.748429565429688068e+02 2.748753967285156250e+02 2.748970642089843750e+02 2.749187316894531250e+02 2.749217224121093750e+02 2.749234924316406250e+02 2.749266052246093750e+02 2.749300537109375000e+02 2.749365844726561932e+02 2.749448242187500000e+02 2.749626464843750000e+02 2.749899902343750000e+02 2.750166015625000000e+02 2.750419006347656250e+02 2.750654602050781250e+02 2.750823974609375000e+02 2.750980834960938068e+02 2.750959777832031250e+02 2.750938415527343750e+02 2.750815124511718750e+02 2.750682678222656250e+02 2.750550537109375000e+02 2.750418701171875000e+02 2.750305480957031250e+02 2.750203247070311932e+02 2.750131225585938068e+02 2.750091247558593750e+02 2.750085449218750000e+02 2.750146179199218750e+02 2.750225219726561932e+02 2.750381164550781250e+02 2.750540466308593750e+02 2.750771179199218750e+02 2.751001892089843750e+02 2.751156921386718750e+02 2.751303100585938068e+02 2.751417846679688068e+02 2.751522216796875000e+02 2.751633300781250000e+02 2.751748352050781250e+02 2.751961975097656250e+02 2.752290649414061932e+02 2.752634582519531250e+02 2.753011169433593750e+02 2.753383483886718750e+02 2.753734436035156250e+02 2.754080200195311932e+02
2.731541442871093750e+02 2.732015075683593750e+02 2.732489013671875000e+02 2.732948608398438068e+02 2.733406677246093750e+02 2.733828430175781250e+02 2.734237670898438068e+02 2.734569702148438068e+02 2.734851379394531250e+02 2.735097045898438068e+02 2.735300292968750000e+02 2.735484924316406250e+02 2.735628356933593750e+02 2.735763854980468750e+02 2.735861511230468750e+02 2.735958862304688068e+02 2.736044921875000000e+02 2.736130981445311932e+02 2.736216430664061932e+02 2.736301879882811932e+02 2.736405029296875000e+02 2.736514892578125000e+02 2.736604919433593750e+02 2.736681213378906250e+02 2.736742858886718750e+02 2.736785888671875000e+02 2.736845092773438068e+02 2.736944580078125000e+02 2.737046813964843750e+02 2.737167053222656250e+02 2.737286987304688068e+02 2.737428588867188068e+02 2.737569885253906250e+02 2.737744140625000000e+02 2.737923889160156250e+02 2.738124389648438068e+02 2.738333740234375000e+02 2.738570251464843750e+02 2.738827819824218750e+02 2.739122314453125000e+02 2.739468994140625000e+02 2.739841003417968750e+02 2.740281066894531250e+02 2.740721130371093750e+02 2.741162109375000000e+02 2.741603088378906250e+02 2.742024536132811932e+02 2.742445678710938068e+02 2.742772521972656250e+02 2.743080444335938068e+02 2.743365783691406250e+02 2.743641052246093750e+02 2.743905639648438068e+02 2.744161376953125000e+02 2.744438171386718750e+02 2.744746704101561932e+02 2.745031127929688068e+02 2.745244750976561932e+02 2.745454711914061932e+02 2.745637207031250000e+02 2.745819702148438068e+02 2.746054077148438068e+02 2.746290588378906250e+02 2.746431579589843750e+02 2.746550903320311932e+02 2.746657714843750000e+02 2.746758422851561932e+02 2.746870422363281250e+02 2.746993103027343750e+02 2.747214050292968750e+02 2.747597961425781250e+02 2.747971496582031250e+02 2.748311767578125000e+02 2.748644714355468750e+02 2.748901062011718750e+02 2.749157409667968750e+02 2.749188842773438068e+02 2.749205627441406250e+02 2.749233398437500000e+02 2.749264221191406250e+02 2.749323425292968750e+02 2.749398498535156250e+02 2.749564819335938068e+02 2.749822082519531250e+02 2.750072021484375000e+02 2.750307922363281250e+02 2.750527954101561932e+02 2.750688781738281250e+02 2.750838623046875000e+02 2.750831298828125000e+02 2.750823974609375000e+02 2.750702819824218750e+02 2.750571899414061932e+02 2.750434265136718750e+02 2.750294799804688068e+02 2.750168151855468750e+02 2.750049133300781250e+02 2.749969787597656250e+02 2.749932861328125000e+02 2.749930114746093750e+02 2.749994812011718750e+02 2.750077514648438068e+02 2.750235900878906250e+02 2.750396728515625000e+02 2.750614013671875000e+02 2.750831604003906250e+02 2.750961608886718750e+02 2.751081848144531250e+02 2.751174011230468750e+02 2.751257324218750000e+02 2.751372680664061932e+02 2.751508178710938068e+02 2.751733093261718750e+02 2.752062072753906250e+02 2.752406616210938068e+02 2.752784118652343750e+02 2.753159179687500000e+02 2.753523254394531250e+02 2.753881530761718750e+02
2.731299133300781250e+02 2.731734924316406250e+02 2.732170715332031250e+02 2.732595520019531250e+02 2.733019409179688068e+02 2.733419189453125000e+02 2.733810729980468750e+02 2.734134826660156250e+02 2.734414672851561932e+02 2.734660339355468750e+02 2.734866027832031250e+02 2.735049743652343750e+02 2.735186462402343750e+02 2.735316772460938068e+02 2.735416870117188068e+02 2.735516967773438068e+02 2.735610046386718750e+02 2.735703430175781250e+02 2.735798950195311932e+02 2.735895080566406250e+02 2.735995483398438068e+02 2.736097412109375000e+02 2.736188354492188068e+02 2.736271667480468750e+02 2.736346740722656250e+02 2.736412048339843750e+02 2.736489868164061932e+02 2.736598815917968750e+02 2.736709899902343750e+02 2.736835021972656250e+02 2.736960144042968750e+02 2.737104187011718750e+02 2.737248535156250000e+02 2.737427368164061932e+02 2.737612304687500000e+02 2.737808532714843750e+02 2.738009338378906250e+02 2.738238220214843750e+02 2.738489074707031250e+02 2.738783264160156250e+02 2.739137878417968750e+02 2.739523925781250000e+02 2.739992675781250000e+02 2.740462341308593750e+02 2.740937805175781250e+02 2.741413269042968750e+02 2.741872558593750000e+02 2.742331542968750000e+02 2.742647094726561932e+02 2.742933959960938068e+02 2.743194580078125000e+02 2.743443603515625000e+02 2.743681945800781250e+02 2.743912048339843750e+02 2.744176635742188068e+02 2.744494323730468750e+02 2.744792480468750000e+02 2.745032348632811932e+02 2.745268859863281250e+02 2.745478820800781250e+02 2.745688476562500000e+02 2.745925598144531250e+02 2.746163940429688068e+02 2.746309814453125000e+02 2.746434936523438068e+02 2.746548156738281250e+02 2.746655273437500000e+02 2.746773681640625000e+02 2.746902465820311932e+02 2.747117919921875000e+02 2.747476501464843750e+02 2.747831420898438068e+02 2.748174133300781250e+02 2.748512268066406250e+02 2.748803710937500000e+02 2.749095153808593750e+02 2.749131774902343750e+02 2.749152221679688068e+02 2.749179077148438068e+02 2.749207458496093750e+02 2.749259948730468750e+02 2.749325561523438068e+02 2.749475097656250000e+02 2.749707946777343750e+02 2.749933776855468750e+02 2.750147705078125000e+02 2.750348510742188068e+02 2.750499877929688068e+02 2.750642395019531250e+02 2.750654602050781250e+02 2.750666809082031250e+02 2.750554809570311932e+02 2.750431518554688068e+02 2.750296936035156250e+02 2.750158996582031250e+02 2.750029602050781250e+02 2.749905700683593750e+02 2.749827575683593750e+02 2.749799194335938068e+02 2.749803466796875000e+02 2.749873352050781250e+02 2.749959716796875000e+02 2.750117492675781250e+02 2.750277099609375000e+02 2.750471191406250000e+02 2.750665588378906250e+02 2.750769348144531250e+02 2.750863342285156250e+02 2.750936584472656250e+02 2.751003112792968750e+02 2.751126403808593750e+02 2.751286315917968750e+02 2.751525878906250000e+02 2.751858215332031250e+02 2.752205200195311932e+02 2.752583312988281250e+02 2.752960510253906250e+02 2.753331909179688068e+02 2.753696594238281250e+02
2.731182556152343750e+02 2.731546936035156250e+02 2.731911315917968750e+02 2.732284545898438068e+02 2.732658691406250000e+02 2.733032226562500000e+02 2.733405456542968750e+02 2.733724670410156250e+02 2.734007873535156250e+02 2.734261169433593750e+02 2.734478759765625000e+02 2.734672851562500000e+02 2.734816284179688068e+02 2.734952392578125000e+02 2.735054931640625000e+02 2.735157165527343750e+02 2.735249938964843750e+02 2.735342407226561932e+02 2.735435180664061932e+02 2.735527648925781250e+02 2.735618896484375000e+02 2.735709838867188068e+02 2.735798645019531250e+02 2.735885620117188068e+02 2.735971679687500000e+02 2.736056213378906250e+02 2.736149291992188068e+02 2.736262817382811932e+02 2.736378479003906250e+02 2.736508178710938068e+02 2.736637878417968750e+02 2.736789550781250000e+02 2.736940917968750000e+02 2.737138671875000000e+02 2.737344055175781250e+02 2.737545776367188068e+02 2.737745971679688068e+02 2.737972412109375000e+02 2.738219299316406250e+02 2.738514099121093750e+02 2.738875122070311932e+02 2.739273986816406250e+02 2.739773559570311932e+02 2.740274047851561932e+02 2.740781860351561932e+02 2.741289367675781250e+02 2.741777343750000000e+02 2.742265014648438068e+02 2.742555236816406250e+02 2.742805786132811932e+02 2.743026733398438068e+02 2.743234252929688068e+02 2.743432617187500000e+02 2.743623657226561932e+02 2.743868103027343750e+02 2.744194335937500000e+02 2.744504699707031250e+02 2.744768981933593750e+02 2.745029907226561932e+02 2.745264282226561932e+02 2.745498657226561932e+02 2.745736083984375000e+02 2.745973510742188068e+02 2.746135864257811932e+02 2.746280517578125000e+02 2.746411743164061932e+02 2.746536254882811932e+02 2.746664428710938068e+02 2.746795654296875000e+02 2.747002563476561932e+02 2.747333679199218750e+02 2.747667236328125000e+02 2.748008117675781250e+02 2.748347167968750000e+02 2.748666992187500000e+02 2.748986816406250000e+02 2.749035034179688068e+02 2.749065551757811932e+02 2.749093933105468750e+02 2.749122009277343750e+02 2.749166870117188068e+02 2.749220886230468750e+02 2.749346008300781250e+02 2.749541931152343750e+02 2.749734191894531250e+02 2.749919433593750000e+02 2.750095214843750000e+02 2.750236206054688068e+02 2.750370483398438068e+02 2.750410461425781250e+02 2.750450134277343750e+02 2.750356140136718750e+02 2.750250244140625000e+02 2.750130310058593750e+02 2.750006103515625000e+02 2.749889221191406250e+02 2.749776916503906250e+02 2.749712524414061932e+02 2.749699707031250000e+02 2.749716796875000000e+02 2.749793395996093750e+02 2.749884338378906250e+02 2.750037536621093750e+02 2.750191040039061932e+02 2.750348205566406250e+02 2.750505676269531250e+02 2.750581665039061932e+02 2.750648803710938068e+02 2.750707702636718750e+02 2.750763854980468750e+02 2.750900878906250000e+02 2.751090087890625000e+02 2.751348876953125000e+02 2.751688842773438068e+02 2.752041015625000000e+02 2.752419738769531250e+02 2.752797241210938068e+02 2.753167724609375000e+02 2.753530578613281250e+02
2.731160278320311932e+02 2.731426391601561932e+02 2.731692504882811932e+02 2.731998596191406250e+02 2.732309570312500000e+02 2.732651062011718750e+02 2.733002929687500000e+02 2.733320007324218750e+02 2.733613891601561932e+02 2.733883666992188068e+02 2.734124755859375000e+02 2.734341125488281250e+02 2.734502258300781250e+02 2.734653930664061932e+02 2.734758911132811932e+02 2.734863281250000000e+02 2.734949645996093750e+02 2.735035705566406250e+02 2.735114135742188068e+02 2.735191040039061932e+02 2.735268554687500000e+02 2.735346069335938068e+02 2.735430297851561932e+02 2.735519409179688068e+02 2.735614013671875000e+02 2.735715942382811932e+02 2.735821533203125000e+02 2.735935668945311932e+02 2.736052551269531250e+02 2.736185607910156250e+02 2.736318969726561932e+02 2.736479797363281250e+02 2.736640930175781250e+02 2.736866149902343750e+02 2.737102355957031250e+02 2.737317504882811932e+02 2.737524108886718750e+02 2.737753601074218750e+02 2.738000793457031250e+02 2.738298645019531250e+02 2.738666687011718750e+02 2.739078979492188068e+02 2.739610290527343750e+02 2.740142211914061932e+02 2.740678710937500000e+02 2.741215209960938068e+02 2.741723937988281250e+02 2.742232055664061932e+02 2.742487792968750000e+02 2.742693786621093750e+02 2.742866516113281250e+02 2.743023986816406250e+02 2.743174438476561932e+02 2.743319091796875000e+02 2.743540344238281250e+02 2.743878173828125000e+02 2.744202575683593750e+02 2.744486083984375000e+02 2.744766540527343750e+02 2.745018615722656250e+02 2.745270690917968750e+02 2.745508117675781250e+02 2.745744628906250000e+02 2.745932617187500000e+02 2.746109313964843750e+02 2.746267395019531250e+02 2.746416625976561932e+02 2.746554565429688068e+02 2.746682128906250000e+02 2.746877746582031250e+02 2.747185974121093750e+02 2.747501220703125000e+02 2.747839355468750000e+02 2.748177490234375000e+02 2.748518066406250000e+02 2.748858947753906250e+02 2.748917846679688068e+02 2.748958740234375000e+02 2.748988647460938068e+02 2.749015502929688068e+02 2.749050903320311932e+02 2.749090881347656250e+02 2.749189147949218750e+02 2.749345092773438068e+02 2.749501342773438068e+02 2.749657897949218750e+02 2.749808959960938068e+02 2.749940490722656250e+02 2.750068054199218750e+02 2.750135803222656250e+02 2.750203857421875000e+02 2.750130004882811932e+02 2.750043640136718750e+02 2.749943847656250000e+02 2.749840393066406250e+02 2.749746704101561932e+02 2.749658813476561932e+02 2.749616088867188068e+02 2.749621887207031250e+02 2.749653320312500000e+02 2.749735717773438068e+02 2.749829711914061932e+02 2.749974060058593750e+02 2.750116882324218750e+02 2.750229187011718750e+02 2.750341491699218750e+02 2.750390930175781250e+02 2.750433654785156250e+02 2.750483703613281250e+02 2.750535888671875000e+02 2.750690002441406250e+02 2.750910034179688068e+02 2.751189880371093750e+02 2.751539306640625000e+02 2.751897888183593750e+02 2.752275390625000000e+02 2.752650451660156250e+02 2.753010559082031250e+02 2.753362731933593750e+02
2.731391296386718750e+02 2.731486511230468750e+02 2.731581726074218750e+02 2.731780090332031250e+02 2.731990356445311932e+02 2.732284851074218750e+02 2.732607421875000000e+02 2.732930603027343750e+02 2.733254089355468750e+02 2.733565063476561932e+02 2.733861083984375000e+02 2.734129638671875000e+02 2.734338989257811932e+02 2.734531250000000000e+02 2.734639282226561932e+02 2.734746093750000000e+02 2.734810180664061932e+02 2.734873962402343750e+02 2.734908142089843750e+02 2.734938354492188068e+02 2.734988098144531250e+02 2.735045471191406250e+02 2.735119628906250000e+02 2.735205688476561932e+02 2.735303649902343750e+02 2.735416870117188068e+02 2.735527648925781250e+02 2.735632324218750000e+02 2.735741271972656250e+02 2.735874633789061932e+02 2.736007690429688068e+02 2.736184082031250000e+02 2.736360473632811932e+02 2.736637573242188068e+02 2.736932067871093750e+02 2.737181701660156250e+02 2.737413330078125000e+02 2.737660217285156250e+02 2.737919311523438068e+02 2.738227233886718750e+02 2.738603515625000000e+02 2.739031372070311932e+02 2.739596252441406250e+02 2.740160522460938068e+02 2.740718078613281250e+02 2.741275634765625000e+02 2.741782226562500000e+02 2.742287597656250000e+02 2.742486572265625000e+02 2.742624816894531250e+02 2.742726440429688068e+02 2.742810974121093750e+02 2.742892456054688068e+02 2.742971191406250000e+02 2.743161010742188068e+02 2.743519897460938068e+02 2.743861389160156250e+02 2.744151611328125000e+02 2.744437561035156250e+02 2.744688720703125000e+02 2.744940185546875000e+02 2.745176391601561932e+02 2.745411987304688068e+02 2.745651550292968750e+02 2.745892333984375000e+02 2.746101684570311932e+02 2.746295776367188068e+02 2.746444091796875000e+02 2.746550292968750000e+02 2.746728515625000000e+02 2.747025146484375000e+02 2.747330017089843750e+02 2.747662353515625000e+02 2.747995605468750000e+02 2.748336181640625000e+02 2.748677062988281250e+02 2.748746948242188068e+02 2.748799133300781250e+02 2.748828430175781250e+02 2.748851623535156250e+02 2.748873291015625000e+02 2.748894042968750000e+02 2.748958129882811932e+02 2.749064636230468750e+02 2.749179077148438068e+02 2.749306640625000000e+02 2.749433898925781250e+02 2.749559020996093750e+02 2.749682617187500000e+02 2.749780578613281250e+02 2.749878540039061932e+02 2.749830322265625000e+02 2.749768981933593750e+02 2.749704895019531250e+02 2.749639587402343750e+02 2.749597167968750000e+02 2.749568176269531250e+02 2.749568481445311932e+02 2.749600830078125000e+02 2.749651184082031250e+02 2.749737243652343750e+02 2.749830627441406250e+02 2.749954223632811932e+02 2.750074768066406250e+02 2.750120239257811932e+02 2.750166015625000000e+02 2.750192871093750000e+02 2.750217590332031250e+02 2.750273132324218750e+02 2.750339050292968750e+02 2.750519104003906250e+02 2.750773315429688068e+02 2.751078491210938068e+02 2.751443481445311932e+02 2.751810607910156250e+02 2.752183227539061932e+02 2.752547607421875000e+02 2.752873229980468750e+02 2.753190002441406250e+02
2.731670227050781250e+02 2.731615295410156250e+02 2.731560363769531250e+02 2.731661987304688068e+02 2.731781921386718750e+02 2.732030334472656250e+02 2.732321777343750000e+02 2.732641601562500000e+02 2.732980041503906250e+02 2.733315734863281250e+02 2.733647766113281250e+02 2.733952331542968750e+02 2.734197082519531250e+02 2.734419250488281250e+02 2.734527893066406250e+02 2.734635314941406250e+02 2.734679870605468750e+02 2.734724731445311932e+02 2.734722290039061932e+02 2.734713439941406250e+02 2.734739990234375000e+02 2.734779357910156250e+02 2.734843444824218750e+02 2.734924926757811932e+02 2.735023193359375000e+02 2.735143127441406250e+02 2.735256652832031250e+02 2.735353698730468750e+02 2.735456848144531250e+02 2.735594787597656250e+02 2.735732727050781250e+02 2.735928649902343750e+02 2.736124572753906250e+02 2.736450500488281250e+02 2.736798706054688068e+02 2.737081604003906250e+02 2.737337646484375000e+02 2.737601928710938068e+02 2.737872314453125000e+02 2.738189086914061932e+02 2.738570556640625000e+02 2.739008483886718750e+02 2.739597473144531250e+02 2.740184020996093750e+02 2.740754089355468750e+02 2.741323852539061932e+02 2.741823120117188068e+02 2.742320556640625000e+02 2.742470092773438068e+02 2.742550354003906250e+02 2.742590332031250000e+02 2.742612304687500000e+02 2.742633361816406250e+02 2.742653503417968750e+02 2.742810668945311932e+02 2.743175048828125000e+02 2.743520812988281250e+02 2.743810729980468750e+02 2.744096679687500000e+02 2.744347534179688068e+02 2.744598693847656250e+02 2.744843444824218750e+02 2.745087890625000000e+02 2.745377807617188068e+02 2.745678100585938068e+02 2.745936584472656250e+02 2.746174011230468750e+02 2.746337280273438068e+02 2.746433410644531250e+02 2.746600341796875000e+02 2.746884460449218750e+02 2.747178039550781250e+02 2.747502441406250000e+02 2.747828063964843750e+02 2.748166503906250000e+02 2.748504943847656250e+02 2.748588867187500000e+02 2.748656616210938068e+02 2.748691101074218750e+02 2.748716735839843750e+02 2.748731689453125000e+02 2.748740234375000000e+02 2.748776855468750000e+02 2.748840942382811932e+02 2.748916931152343750e+02 2.749014282226561932e+02 2.749114685058593750e+02 2.749228210449218750e+02 2.749341735839843750e+02 2.749463500976561932e+02 2.749585266113281250e+02 2.749560546875000000e+02 2.749523315429688068e+02 2.749491577148438068e+02 2.749461364746093750e+02 2.749464416503906250e+02 2.749486999511718750e+02 2.749526062011718750e+02 2.749582824707031250e+02 2.749650573730468750e+02 2.749741210937500000e+02 2.749834899902343750e+02 2.749942016601561932e+02 2.750043945312500000e+02 2.750032653808593750e+02 2.750021362304688068e+02 2.750030822753906250e+02 2.750042724609375000e+02 2.750105895996093750e+02 2.750186157226561932e+02 2.750389709472656250e+02 2.750673217773438068e+02 2.750999145507811932e+02 2.751373901367188068e+02 2.751744079589843750e+02 2.752104797363281250e+02 2.752452392578125000e+02 2.752735290527343750e+02 2.753008728027343750e+02
2.732279357910156250e+02 2.732220764160156250e+02 2.732162170410156250e+02 2.732243041992188068e+02 2.732340393066406250e+02 2.732550964355468750e+02 2.732799377441406250e+02 2.733049621582031250e+02 2.733301391601561932e+02 2.733547363281250000e+02 2.733786010742188068e+02 2.734010620117188068e+02 2.734204406738281250e+02 2.734381408691406250e+02 2.734474487304688068e+02 2.734566650390625000e+02 2.734613647460938068e+02 2.734660644531250000e+02 2.734674987792968750e+02 2.734684753417968750e+02 2.734715576171875000e+02 2.734754028320311932e+02 2.734808654785156250e+02 2.734874572753906250e+02 2.734952087402343750e+02 2.735044860839843750e+02 2.735140991210938068e+02 2.735245056152343750e+02 2.735359497070311932e+02 2.735533447265625000e+02 2.735707397460938068e+02 2.735952148437500000e+02 2.736197204589843750e+02 2.736550903320311932e+02 2.736923217773438068e+02 2.737228698730468750e+02 2.737506408691406250e+02 2.737785644531250000e+02 2.738065795898438068e+02 2.738381347656250000e+02 2.738745727539061932e+02 2.739158935546875000e+02 2.739702148437500000e+02 2.740242614746093750e+02 2.740764770507811932e+02 2.741287231445311932e+02 2.741741943359375000e+02 2.742195434570311932e+02 2.742345581054688068e+02 2.742435607910156250e+02 2.742484130859375000e+02 2.742513732910156250e+02 2.742535095214843750e+02 2.742549438476561932e+02 2.742662353515625000e+02 2.742925109863281250e+02 2.743182983398438068e+02 2.743427124023438068e+02 2.743672180175781250e+02 2.743927001953125000e+02 2.744181823730468750e+02 2.744502258300781250e+02 2.744825744628906250e+02 2.745153808593750000e+02 2.745483093261718750e+02 2.745773620605468750e+02 2.746044311523438068e+02 2.746257934570311932e+02 2.746419067382811932e+02 2.746619873046875000e+02 2.746886901855468750e+02 2.747161254882811932e+02 2.747461547851561932e+02 2.747763366699218750e+02 2.748081054687500000e+02 2.748398742675781250e+02 2.748523254394531250e+02 2.748635253906250000e+02 2.748713989257811932e+02 2.748784179687500000e+02 2.748838806152343750e+02 2.748885498046875000e+02 2.748943176269531250e+02 2.749012145996093750e+02 2.749075927734375000e+02 2.749129333496093750e+02 2.749184875488281250e+02 2.749247436523438068e+02 2.749312744140625000e+02 2.749413757324218750e+02 2.749515075683593750e+02 2.749500427246093750e+02 2.749476013183593750e+02 2.749456481933593750e+02 2.749438781738281250e+02 2.749447937011718750e+02 2.749473266601561932e+02 2.749517822265625000e+02 2.749583129882811932e+02 2.749660034179688068e+02 2.749760131835938068e+02 2.749863281250000000e+02 2.749980773925781250e+02 2.750092773437500000e+02 2.750092468261718750e+02 2.750092468261718750e+02 2.750122375488281250e+02 2.750155639648438068e+02 2.750239562988281250e+02 2.750340270996093750e+02 2.750549926757811932e+02 2.750830383300781250e+02 2.751141357421875000e+02 2.751487731933593750e+02 2.751820983886718750e+02 2.752124938964843750e+02 2.752408752441406250e+02 2.752592468261718750e+02 2.752768859863281250e+02
2.732888793945311932e+02 2.732826232910156250e+02 2.732763671875000000e+02 2.732824096679688068e+02 2.732898864746093750e+02 2.733071594238281250e+02 2.733276672363281250e+02 2.733457641601561932e+02 2.733622741699218750e+02 2.733778686523438068e+02 2.733924255371093750e+02 2.734068908691406250e+02 2.734211730957031250e+02 2.734343566894531250e+02 2.734421081542968750e+02 2.734497985839843750e+02 2.734547424316406250e+02 2.734596862792968750e+02 2.734627685546875000e+02 2.734656066894531250e+02 2.734691162109375000e+02 2.734728698730468750e+02 2.734773864746093750e+02 2.734824218750000000e+02 2.734881286621093750e+02 2.734946594238281250e+02 2.735025329589843750e+02 2.735136413574218750e+02 2.735261840820311932e+02 2.735472106933593750e+02 2.735682067871093750e+02 2.735975952148438068e+02 2.736269836425781250e+02 2.736651306152343750e+02 2.737047729492188068e+02 2.737375793457031250e+02 2.737675170898438068e+02 2.737969360351561932e+02 2.738259277343750000e+02 2.738573608398438068e+02 2.738921203613281250e+02 2.739309387207031250e+02 2.739806823730468750e+02 2.740301513671875000e+02 2.740775756835938068e+02 2.741250305175781250e+02 2.741660766601561932e+02 2.742070312500000000e+02 2.742221374511718750e+02 2.742321166992188068e+02 2.742377929687500000e+02 2.742415161132811932e+02 2.742436828613281250e+02 2.742445068359375000e+02 2.742514038085938068e+02 2.742675170898438068e+02 2.742845458984375000e+02 2.743043212890625000e+02 2.743247375488281250e+02 2.743506164550781250e+02 2.743764648437500000e+02 2.744161071777343750e+02 2.744563293457031250e+02 2.744929809570311932e+02 2.745288391113281250e+02 2.745610351562500000e+02 2.745914611816406250e+02 2.746178283691406250e+02 2.746404418945311932e+02 2.746639404296875000e+02 2.746889038085938068e+02 2.747144775390625000e+02 2.747420654296875000e+02 2.747698364257811932e+02 2.747995605468750000e+02 2.748292541503906250e+02 2.748457641601561932e+02 2.748613891601561932e+02 2.748736877441406250e+02 2.748851318359375000e+02 2.748946228027343750e+02 2.749030456542968750e+02 2.749109497070311932e+02 2.749183349609375000e+02 2.749234619140625000e+02 2.749244384765625000e+02 2.749254760742188068e+02 2.749266967773438068e+02 2.749283752441406250e+02 2.749364318847656250e+02 2.749444580078125000e+02 2.749440307617188068e+02 2.749428710937500000e+02 2.749421691894531250e+02 2.749416198730468750e+02 2.749431762695311932e+02 2.749459533691406250e+02 2.749509887695311932e+02 2.749583740234375000e+02 2.749669494628906250e+02 2.749779052734375000e+02 2.749891967773438068e+02 2.750019531250000000e+02 2.750141601562500000e+02 2.750152587890625000e+02 2.750163269042968750e+02 2.750213623046875000e+02 2.750268554687500000e+02 2.750373229980468750e+02 2.750494384765625000e+02 2.750710144042968750e+02 2.750987243652343750e+02 2.751283264160156250e+02 2.751601867675781250e+02 2.751897888183593750e+02 2.752145080566406250e+02 2.752364807128906250e+02 2.752449645996093750e+02 2.752529296875000000e+02
2.733287963867188068e+02 2.733250427246093750e+02 2.733212890625000000e+02 2.733289184570311932e+02 2.733378906250000000e+02 2.733535461425781250e+02 2.733714599609375000e+02 2.733855285644531250e+02 2.733970947265625000e+02 2.734073486328125000e+02 2.734160766601561932e+02 2.734249267578125000e+02 2.734340209960938068e+02 2.734423828125000000e+02 2.734469299316406250e+02 2.734514465332031250e+02 2.734548645019531250e+02 2.734582824707031250e+02 2.734616394042968750e+02 2.734649658203125000e+02 2.734688720703125000e+02 2.734729919433593750e+02 2.734775695800781250e+02 2.734824523925781250e+02 2.734878845214843750e+02 2.734939880371093750e+02 2.735024414062500000e+02 2.735165405273438068e+02 2.735321960449218750e+02 2.735569152832031250e+02 2.735816040039061932e+02 2.736147460937500000e+02 2.736478881835938068e+02 2.736882324218750000e+02 2.737297973632811932e+02 2.737644348144531250e+02 2.737962036132811932e+02 2.738263549804688068e+02 2.738552246093750000e+02 2.738846740722656250e+02 2.739148559570311932e+02 2.739483337402343750e+02 2.739906005859375000e+02 2.740325927734375000e+02 2.740728759765625000e+02 2.741131591796875000e+02 2.741481933593750000e+02 2.741831359863281250e+02 2.741971740722656250e+02 2.742070922851561932e+02 2.742136840820311932e+02 2.742187805175781250e+02 2.742223815917968750e+02 2.742247009277343750e+02 2.742298889160156250e+02 2.742394714355468750e+02 2.742511291503906250e+02 2.742690124511718750e+02 2.742878723144531250e+02 2.743154907226561932e+02 2.743430786132811932e+02 2.743887329101561932e+02 2.744351501464843750e+02 2.744765014648438068e+02 2.745167236328125000e+02 2.745531311035156250e+02 2.745877075195311932e+02 2.746184692382811932e+02 2.746457214355468750e+02 2.746707763671875000e+02 2.746921081542968750e+02 2.747140197753906250e+02 2.747379760742188068e+02 2.747622070312500000e+02 2.747893066406250000e+02 2.748163757324218750e+02 2.748351440429688068e+02 2.748533935546875000e+02 2.748692626953125000e+02 2.748844909667968750e+02 2.748979187011718750e+02 2.749103698730468750e+02 2.749208068847656250e+02 2.749292297363281250e+02 2.749345092773438068e+02 2.749341735839843750e+02 2.749337158203125000e+02 2.749328613281250000e+02 2.749324951171875000e+02 2.749389343261718750e+02 2.749453430175781250e+02 2.749454956054688068e+02 2.749451293945311932e+02 2.749451904296875000e+02 2.749454040527343750e+02 2.749472656250000000e+02 2.749501037597656250e+02 2.749549560546875000e+02 2.749619140625000000e+02 2.749699401855468750e+02 2.749800415039061932e+02 2.749905090332031250e+02 2.750024414062500000e+02 2.750140075683593750e+02 2.750179748535156250e+02 2.750219116210938068e+02 2.750295410156250000e+02 2.750375976562500000e+02 2.750496826171875000e+02 2.750630798339843750e+02 2.750834960937500000e+02 2.751084289550781250e+02 2.751349487304688068e+02 2.751632995605468750e+02 2.751893615722656250e+02 2.752103576660156250e+02 2.752286071777343750e+02 2.752334289550781250e+02 2.752378540039061932e+02
2.733683166503906250e+02 2.733670959472656250e+02 2.733658752441406250e+02 2.733751831054688068e+02 2.733857116699218750e+02 2.733998413085938068e+02 2.734151916503906250e+02 2.734252929687500000e+02 2.734319763183593750e+02 2.734369506835938068e+02 2.734399108886718750e+02 2.734431762695311932e+02 2.734471435546875000e+02 2.734506530761718750e+02 2.734519653320311932e+02 2.734532775878906250e+02 2.734551086425781250e+02 2.734569702148438068e+02 2.734605407714843750e+02 2.734643859863281250e+02 2.734686889648438068e+02 2.734731445312500000e+02 2.734778137207031250e+02 2.734826049804688068e+02 2.734877929687500000e+02 2.734934997558593750e+02 2.735025634765625000e+02 2.735197448730468750e+02 2.735385437011718750e+02 2.735669250488281250e+02 2.735953369140625000e+02 2.736322021484375000e+02 2.736690673828125000e+02 2.737115783691406250e+02 2.737550659179688068e+02 2.737915344238281250e+02 2.738251342773438068e+02 2.738559875488281250e+02 2.738847351074218750e+02 2.739121398925781250e+02 2.739377441406250000e+02 2.739657897949218750e+02 2.740004882812500000e+02 2.740349731445311932e+02 2.740680541992188068e+02 2.741011657714843750e+02 2.741301269531250000e+02 2.741589965820311932e+02 2.741719665527343750e+02 2.741817932128906250e+02 2.741893310546875000e+02 2.741958007812500000e+02 2.742008361816406250e+02 2.742046813964843750e+02 2.742082519531250000e+02 2.742113647460938068e+02 2.742177429199218750e+02 2.742337341308593750e+02 2.742511291503906250e+02 2.742804870605468750e+02 2.743098449707031250e+02 2.743614807128906250e+02 2.744140930175781250e+02 2.744601745605468750e+02 2.745047302246093750e+02 2.745454101562500000e+02 2.745841369628906250e+02 2.746192626953125000e+02 2.746511535644531250e+02 2.746776733398438068e+02 2.746953430175781250e+02 2.747136230468750000e+02 2.747339172363281250e+02 2.747545776367188068e+02 2.747790222167968750e+02 2.748034667968750000e+02 2.748244934082031250e+02 2.748452758789061932e+02 2.748646850585938068e+02 2.748836975097656250e+02 2.749010620117188068e+02 2.749175415039061932e+02 2.749305114746093750e+02 2.749399719238281250e+02 2.749454650878906250e+02 2.749438476562500000e+02 2.749419555664061932e+02 2.749391174316406250e+02 2.749367675781250000e+02 2.749415588378906250e+02 2.749463500976561932e+02 2.749471130371093750e+02 2.749475097656250000e+02 2.749483337402343750e+02 2.749493103027343750e+02 2.749514770507811932e+02 2.749543762207031250e+02 2.749590148925781250e+02 2.749655151367188068e+02 2.749729614257811932e+02 2.749821777343750000e+02 2.749917602539061932e+02 2.750028686523438068e+02 2.750137634277343750e+02 2.750206298828125000e+02 2.750274658203125000e+02 2.750377197265625000e+02 2.750483398437500000e+02 2.750620117187500000e+02 2.750766906738281250e+02 2.750958862304688068e+02 2.751180114746093750e+02 2.751413879394531250e+02 2.751662597656250000e+02 2.751887207031250000e+02 2.752060852050781250e+02 2.752207031250000000e+02 2.752219238281250000e+02 2.752229309082031250e+02
2.733878173828125000e+02 2.733903808593750000e+02 2.733929443359375000e+02 2.734061279296875000e+02 2.734205322265625000e+02 2.734349060058593750e+02 2.734492797851561932e+02 2.734584350585938068e+02 2.734641418457031250e+02 2.734677734375000000e+02 2.734689331054688068e+02 2.734695739746093750e+02 2.734690856933593750e+02 2.734681701660156250e+02 2.734650878906250000e+02 2.734620056152343750e+02 2.734607543945311932e+02 2.734595031738281250e+02 2.734619445800781250e+02 2.734649353027343750e+02 2.734694824218750000e+02 2.734746398925781250e+02 2.734802856445311932e+02 2.734863281250000000e+02 2.734930419921875000e+02 2.735006103515625000e+02 2.735123901367188068e+02 2.735342407226561932e+02 2.735575561523438068e+02 2.735892944335938068e+02 2.736210021972656250e+02 2.736601562500000000e+02 2.736992797851561932e+02 2.737432861328125000e+02 2.737881164550781250e+02 2.738259582519531250e+02 2.738609313964843750e+02 2.738919067382811932e+02 2.739197692871093750e+02 2.739440917968750000e+02 2.739634704589843750e+02 2.739844970703125000e+02 2.740099487304688068e+02 2.740352783203125000e+02 2.740597534179688068e+02 2.740841979980468750e+02 2.741059570312500000e+02 2.741276855468750000e+02 2.741382141113281250e+02 2.741465454101561932e+02 2.741543884277343750e+02 2.741620483398438068e+02 2.741691284179688068e+02 2.741757507324218750e+02 2.741801452636718750e+02 2.741811523437500000e+02 2.741861877441406250e+02 2.742031555175781250e+02 2.742217102050781250e+02 2.742539062500000000e+02 2.742861022949218750e+02 2.743417968750000000e+02 2.743984680175781250e+02 2.744494628906250000e+02 2.744991455078125000e+02 2.745444030761718750e+02 2.745874633789061932e+02 2.746260070800781250e+02 2.746603698730468750e+02 2.746867370605468750e+02 2.746998901367188068e+02 2.747137145996093750e+02 2.747297973632811932e+02 2.747463378906250000e+02 2.747677917480468750e+02 2.747892456054688068e+02 2.748106079101561932e+02 2.748320007324218750e+02 2.748536376953125000e+02 2.748753662109375000e+02 2.748959960937500000e+02 2.749160766601561932e+02 2.749313354492188068e+02 2.749418029785156250e+02 2.749485168457031250e+02 2.749484558105468750e+02 2.749480285644531250e+02 2.749462585449218750e+02 2.749448547363281250e+02 2.749489746093750000e+02 2.749530639648438068e+02 2.749542846679688068e+02 2.749552612304688068e+02 2.749566040039061932e+02 2.749580383300781250e+02 2.749604492187500000e+02 2.749634094238281250e+02 2.749672851562500000e+02 2.749721984863281250e+02 2.749777221679688068e+02 2.749844970703125000e+02 2.749916381835938068e+02 2.750002136230468750e+02 2.750088806152343750e+02 2.750193481445311932e+02 2.750298156738281250e+02 2.750426330566406250e+02 2.750557556152343750e+02 2.750704345703125000e+02 2.750856323242188068e+02 2.751023559570311932e+02 2.751200866699218750e+02 2.751394653320311932e+02 2.751607666015625000e+02 2.751803283691406250e+02 2.751961975097656250e+02 2.752098999023438068e+02 2.752131652832031250e+02 2.752163085937500000e+02
2.734032897949218750e+02 2.734099121093750000e+02 2.734165039062500000e+02 2.734340209960938068e+02 2.734527893066406250e+02 2.734677734375000000e+02 2.734814758300781250e+02 2.734902343750000000e+02 2.734957580566406250e+02 2.734988098144531250e+02 2.734989624023438068e+02 2.734975585937500000e+02 2.734927978515625000e+02 2.734875183105468750e+02 2.734797973632811932e+02 2.734721374511718750e+02 2.734674682617188068e+02 2.734627990722656250e+02 2.734638366699218750e+02 2.734656677246093750e+02 2.734704589843750000e+02 2.734763793945311932e+02 2.734832153320311932e+02 2.734907836914061932e+02 2.734993591308593750e+02 2.735092468261718750e+02 2.735241088867188068e+02 2.735509948730468750e+02 2.735791015625000000e+02 2.736140747070311932e+02 2.736490478515625000e+02 2.736901855468750000e+02 2.737312927246093750e+02 2.737766418457031250e+02 2.738226928710938068e+02 2.738618164062500000e+02 2.738981018066406250e+02 2.739290771484375000e+02 2.739559326171875000e+02 2.739769287109375000e+02 2.739897766113281250e+02 2.740034484863281250e+02 2.740193481445311932e+02 2.740351867675781250e+02 2.740507202148438068e+02 2.740662536621093750e+02 2.740805969238281250e+02 2.740949401855468750e+02 2.741027526855468750e+02 2.741092834472656250e+02 2.741173706054688068e+02 2.741261596679688068e+02 2.741353759765625000e+02 2.741449890136718750e+02 2.741507263183593750e+02 2.741505126953125000e+02 2.741549987792968750e+02 2.741734924316406250e+02 2.741937561035156250e+02 2.742290039062500000e+02 2.742642211914061932e+02 2.743235778808593750e+02 2.743839416503906250e+02 2.744398803710938068e+02 2.744947814941406250e+02 2.745447387695311932e+02 2.745921936035156250e+02 2.746338806152343750e+02 2.746703491210938068e+02 2.746962280273438068e+02 2.747046813964843750e+02 2.747138977050781250e+02 2.747256469726561932e+02 2.747379760742188068e+02 2.747563781738281250e+02 2.747747497558593750e+02 2.747961120605468750e+02 2.748176879882811932e+02 2.748413391113281250e+02 2.748655090332031250e+02 2.748893127441406250e+02 2.749129333496093750e+02 2.749304199218750000e+02 2.749418945312500000e+02 2.749500122070311932e+02 2.749520568847656250e+02 2.749536437988281250e+02 2.749535522460938068e+02 2.749537048339843750e+02 2.749573059082031250e+02 2.749609069824218750e+02 2.749625854492188068e+02 2.749640808105468750e+02 2.749658813476561932e+02 2.749677734375000000e+02 2.749703674316406250e+02 2.749733581542968750e+02 2.749763793945311932e+02 2.749794616699218750e+02 2.749828491210938068e+02 2.749868469238281250e+02 2.749912109375000000e+02 2.749969482421875000e+02 2.750030517578125000e+02 2.750172729492188068e+02 2.750314941406250000e+02 2.750469055175781250e+02 2.750624694824218750e+02 2.750780334472656250e+02 2.750936279296875000e+02 2.751076354980468750e+02 2.751206665039061932e+02 2.751358642578125000e+02 2.751535949707031250e+02 2.751704101562500000e+02 2.751851806640625000e+02 2.751985168457031250e+02 2.752049255371093750e+02 2.752113037109375000e+02
2.734137268066406250e+02 2.734208374023438068e+02 2.734279174804688068e+02 2.734450683593750000e+02 2.734634094238281250e+02 2.734782409667968750e+02 2.734919128417968750e+02 2.735019226074218750e+02 2.735095520019531250e+02 2.735146484375000000e+02 2.735167846679688068e+02 2.735163574218750000e+02 2.735102844238281250e+02 2.735033874511718750e+02 2.734925842285156250e+02 2.734818420410156250e+02 2.734750061035156250e+02 2.734681396484375000e+02 2.734690246582031250e+02 2.734710083007811932e+02 2.734768981933593750e+02 2.734842529296875000e+02 2.734932556152343750e+02 2.735034790039061932e+02 2.735151672363281250e+02 2.735287780761718750e+02 2.735470275878906250e+02 2.735765380859375000e+02 2.736068725585938068e+02 2.736420288085938068e+02 2.736771850585938068e+02 2.737166442871093750e+02 2.737561340332031250e+02 2.737987060546875000e+02 2.738418273925781250e+02 2.738799438476561932e+02 2.739160156250000000e+02 2.739475097656250000e+02 2.739754333496093750e+02 2.739978637695311932e+02 2.740126647949218750e+02 2.740263366699218750e+02 2.740371093750000000e+02 2.740476379394531250e+02 2.740565185546875000e+02 2.740653991699218750e+02 2.740726013183593750e+02 2.740797729492188068e+02 2.740834960937500000e+02 2.740864868164061932e+02 2.740920715332031250e+02 2.740987854003906250e+02 2.741070556640625000e+02 2.741166381835938068e+02 2.741251525878906250e+02 2.741320190429688068e+02 2.741430053710938068e+02 2.741662292480468750e+02 2.741910400390625000e+02 2.742291564941406250e+02 2.742673034667968750e+02 2.743273010253906250e+02 2.743882141113281250e+02 2.744418029785156250e+02 2.744937133789061932e+02 2.745411682128906250e+02 2.745864257812500000e+02 2.746275939941406250e+02 2.746650390625000000e+02 2.746928405761718750e+02 2.747047424316406250e+02 2.747167053222656250e+02 2.747289733886718750e+02 2.747414855957031250e+02 2.747568969726561932e+02 2.747722778320311932e+02 2.747906799316406250e+02 2.748092651367188068e+02 2.748311462402343750e+02 2.748538818359375000e+02 2.748768310546875000e+02 2.748999023437500000e+02 2.749165039062500000e+02 2.749267272949218750e+02 2.749356079101561932e+02 2.749420166015625000e+02 2.749482116699218750e+02 2.749537048339843750e+02 2.749592590332031250e+02 2.749660644531250000e+02 2.749729003906250000e+02 2.749768371582031250e+02 2.749805603027343750e+02 2.749833068847656250e+02 2.749858093261718750e+02 2.749877014160156250e+02 2.749892272949218750e+02 2.749896850585938068e+02 2.749889526367188068e+02 2.749887390136718750e+02 2.749895629882811932e+02 2.749908447265625000e+02 2.749941406250000000e+02 2.749978942871093750e+02 2.750113830566406250e+02 2.750248718261718750e+02 2.750398559570311932e+02 2.750549926757811932e+02 2.750701293945311932e+02 2.750852355957031250e+02 2.750983276367188068e+02 2.751101074218750000e+02 2.751246337890625000e+02 2.751424255371093750e+02 2.751597595214843750e+02 2.751761169433593750e+02 2.751914062500000000e+02 2.752016296386718750e+02 2.752118530273438068e+02
2.734218750000000000e+02 2.734278564453125000e+02 2.734338378906250000e+02 2.734485168457031250e+02 2.734642333984375000e+02 2.734785766601561932e+02 2.734924926757811932e+02 2.735044860839843750e+02 2.735152282714843750e+02 2.735235900878906250e+02 2.735291137695311932e+02 2.735310058593750000e+02 2.735249633789061932e+02 2.735177001953125000e+02 2.735044860839843750e+02 2.734913635253906250e+02 2.734829101562500000e+02 2.734744262695311932e+02 2.734757080078125000e+02 2.734783935546875000e+02 2.734857788085938068e+02 2.734949035644531250e+02 2.735065307617188068e+02 2.735198669433593750e+02 2.735352478027343750e+02 2.735532226562500000e+02 2.735750122070311932e+02 2.736060485839843750e+02 2.736374816894531250e+02 2.736714172363281250e+02 2.737053222656250000e+02 2.737414855957031250e+02 2.737776794433593750e+02 2.738156738281250000e+02 2.738540039062500000e+02 2.738900451660156250e+02 2.739252014160156250e+02 2.739574279785156250e+02 2.739873962402343750e+02 2.740134582519531250e+02 2.740339965820311932e+02 2.740510253906250000e+02 2.740586547851561932e+02 2.740657653808593750e+02 2.740690002441406250e+02 2.740722656250000000e+02 2.740724792480468750e+02 2.740726013183593750e+02 2.740715332031250000e+02 2.740702514648438068e+02 2.740720520019531250e+02 2.740752868652343750e+02 2.740811767578125000e+02 2.740893554687500000e+02 2.741013183593750000e+02 2.741190185546875000e+02 2.741396484375000000e+02 2.741690673828125000e+02 2.741997375488281250e+02 2.742406921386718750e+02 2.742816772460938068e+02 2.743409729003906250e+02 2.744010314941406250e+02 2.744489440917968750e+02 2.744940795898438068e+02 2.745358276367188068e+02 2.745758972167968750e+02 2.746148376464843750e+02 2.746528015136718750e+02 2.746835937500000000e+02 2.747026367187500000e+02 2.747207031250000000e+02 2.747356567382811932e+02 2.747503967285156250e+02 2.747628173828125000e+02 2.747752685546875000e+02 2.747893066406250000e+02 2.748034667968750000e+02 2.748218994140625000e+02 2.748414611816406250e+02 2.748617248535156250e+02 2.748824157714843750e+02 2.748966979980468750e+02 2.749046630859375000e+02 2.749140014648438068e+02 2.749257812500000000e+02 2.749377746582031250e+02 2.749505920410156250e+02 2.749633483886718750e+02 2.749750366210938068e+02 2.749867553710938068e+02 2.749938354492188068e+02 2.750004882812500000e+02 2.750044555664061932e+02 2.750076293945311932e+02 2.750083923339843750e+02 2.750077819824218750e+02 2.750048522949218750e+02 2.749994506835938068e+02 2.749950256347656250e+02 2.749924316406250000e+02 2.749905395507811932e+02 2.749915466308593750e+02 2.749930114746093750e+02 2.750037536621093750e+02 2.750144958496093750e+02 2.750276489257811932e+02 2.750411071777343750e+02 2.750551757812500000e+02 2.750694274902343750e+02 2.750823669433593750e+02 2.750944824218750000e+02 2.751099853515625000e+02 2.751294555664061932e+02 2.751488037109375000e+02 2.751679077148438068e+02 2.751862182617188068e+02 2.752005615234375000e+02 2.752148742675781250e+02
2.734237060546875000e+02 2.734291076660156250e+02 2.734345092773438068e+02 2.734473876953125000e+02 2.734611511230468750e+02 2.734753723144531250e+02 2.734897155761718750e+02 2.735033569335938068e+02 2.735165100097656250e+02 2.735274353027343750e+02 2.735357971191406250e+02 2.735401000976561932e+02 2.735354309082031250e+02 2.735292968750000000e+02 2.735157165527343750e+02 2.735022583007811932e+02 2.734928588867188068e+02 2.734834594726561932e+02 2.734835205078125000e+02 2.734849548339843750e+02 2.734920043945311932e+02 2.735010986328125000e+02 2.735142822265625000e+02 2.735303649902343750e+02 2.735495910644531250e+02 2.735728454589843750e+02 2.735989685058593750e+02 2.736320495605468750e+02 2.736650695800781250e+02 2.736975402832031250e+02 2.737299804687500000e+02 2.737623901367188068e+02 2.737947998046875000e+02 2.738287353515625000e+02 2.738628845214843750e+02 2.738967590332031250e+02 2.739305114746093750e+02 2.739624328613281250e+02 2.739929504394531250e+02 2.740204467773438068e+02 2.740437316894531250e+02 2.740627746582031250e+02 2.740704040527343750e+02 2.740772705078125000e+02 2.740787353515625000e+02 2.740802307128906250e+02 2.740768127441406250e+02 2.740733032226561932e+02 2.740686340332031250e+02 2.740637207031250000e+02 2.740623779296875000e+02 2.740626831054688068e+02 2.740665588378906250e+02 2.740734863281250000e+02 2.740880432128906250e+02 2.741141967773438068e+02 2.741422729492188068e+02 2.741761474609375000e+02 2.742108764648438068e+02 2.742530822753906250e+02 2.742952575683593750e+02 2.743518066406250000e+02 2.744089050292968750e+02 2.744526977539061932e+02 2.744934387207031250e+02 2.745317382812500000e+02 2.745688476562500000e+02 2.746065979003906250e+02 2.746449279785156250e+02 2.746777343750000000e+02 2.747014465332031250e+02 2.747234802246093750e+02 2.747398986816406250e+02 2.747557373046875000e+02 2.747656555175781250e+02 2.747755737304688068e+02 2.747867431640625000e+02 2.747980041503906250e+02 2.748138427734375000e+02 2.748308410644531250e+02 2.748488464355468750e+02 2.748673400878906250e+02 2.748797302246093750e+02 2.748861083984375000e+02 2.748952026367188068e+02 2.749092102050781250e+02 2.749236450195311932e+02 2.749396972656250000e+02 2.749555664062500000e+02 2.749692382812500000e+02 2.749829101562500000e+02 2.749922485351561932e+02 2.750011901855468750e+02 2.750069274902343750e+02 2.750117187500000000e+02 2.750134582519531250e+02 2.750134277343750000e+02 2.750100097656250000e+02 2.750029296875000000e+02 2.749968872070311932e+02 2.749929199218750000e+02 2.749897155761718750e+02 2.749896240234375000e+02 2.749898986816406250e+02 2.749986267089843750e+02 2.750073242187500000e+02 2.750189514160156250e+02 2.750309448242188068e+02 2.750440673828125000e+02 2.750575561523438068e+02 2.750705871582031250e+02 2.750833129882811932e+02 2.750990905761718750e+02 2.751184387207031250e+02 2.751378479003906250e+02 2.751573791503906250e+02 2.751763305664061932e+02 2.751925964355468750e+02 2.752088012695311932e+02
2.734202575683593750e+02 2.734255065917968750e+02 2.734307556152343750e+02 2.734423828125000000e+02 2.734547729492188068e+02 2.734691162109375000e+02 2.734841308593750000e+02 2.734990844726561932e+02 2.735140075683593750e+02 2.735270080566406250e+02 2.735377502441406250e+02 2.735444946289061932e+02 2.735423889160156250e+02 2.735386047363281250e+02 2.735264282226561932e+02 2.735142822265625000e+02 2.735045166015625000e+02 2.734947509765625000e+02 2.734922790527343750e+02 2.734908447265625000e+02 2.734959716796875000e+02 2.735035400390625000e+02 2.735174560546875000e+02 2.735358581542968750e+02 2.735590515136718750e+02 2.735883483886718750e+02 2.736195068359375000e+02 2.736551513671875000e+02 2.736900939941406250e+02 2.737209167480468750e+02 2.737517089843750000e+02 2.737799682617188068e+02 2.738082275390625000e+02 2.738384704589843750e+02 2.738690490722656250e+02 2.739006042480468750e+02 2.739325866699218750e+02 2.739633178710938068e+02 2.739930725097656250e+02 2.740202026367188068e+02 2.740436706542968750e+02 2.740635681152343750e+02 2.740738830566406250e+02 2.740832519531250000e+02 2.740861511230468750e+02 2.740890808105468750e+02 2.740849609375000000e+02 2.740806884765625000e+02 2.740733642578125000e+02 2.740653991699218750e+02 2.740614318847656250e+02 2.740592346191406250e+02 2.740614013671875000e+02 2.740672302246093750e+02 2.740836791992188068e+02 2.741162719726561932e+02 2.741499023437500000e+02 2.741867370605468750e+02 2.742241210937500000e+02 2.742661437988281250e+02 2.743081970214843750e+02 2.743602294921875000e+02 2.744126892089843750e+02 2.744536132812500000e+02 2.744919128417968750e+02 2.745287170410156250e+02 2.745647277832031250e+02 2.746021118164061932e+02 2.746407165527343750e+02 2.746747131347656250e+02 2.747010498046875000e+02 2.747252197265625000e+02 2.747420654296875000e+02 2.747581481933593750e+02 2.747658996582031250e+02 2.747736511230468750e+02 2.747831726074218750e+02 2.747928161621093750e+02 2.748067321777343750e+02 2.748218078613281250e+02 2.748377990722656250e+02 2.748543090820311932e+02 2.748651733398438068e+02 2.748704833984375000e+02 2.748787536621093750e+02 2.748923645019531250e+02 2.749064331054688068e+02 2.749221801757811932e+02 2.749377746582031250e+02 2.749509582519531250e+02 2.749641113281250000e+02 2.749749755859375000e+02 2.749856262207031250e+02 2.749936523437500000e+02 2.750008544921875000e+02 2.750053710937500000e+02 2.750082397460938068e+02 2.750067138671875000e+02 2.750004577636718750e+02 2.749950561523438068e+02 2.749914550781250000e+02 2.749884643554688068e+02 2.749882202148438068e+02 2.749882812500000000e+02 2.749955749511718750e+02 2.750028381347656250e+02 2.750132141113281250e+02 2.750239257812500000e+02 2.750361938476561932e+02 2.750489501953125000e+02 2.750622558593750000e+02 2.750759277343750000e+02 2.750914306640625000e+02 2.751091003417968750e+02 2.751268920898438068e+02 2.751448364257811932e+02 2.751625061035156250e+02 2.751788024902343750e+02 2.751950988769531250e+02
2.734138183593750000e+02 2.734193725585938068e+02 2.734249572753906250e+02 2.734358825683593750e+02 2.734474487304688068e+02 2.734620971679688068e+02 2.734778137207031250e+02 2.734937438964843750e+02 2.735098571777343750e+02 2.735243530273438068e+02 2.735369567871093750e+02 2.735459899902343750e+02 2.735472106933593750e+02 2.735466003417968750e+02 2.735368347167968750e+02 2.735270385742188068e+02 2.735172729492188068e+02 2.735075073242188068e+02 2.735017395019531250e+02 2.734965515136718750e+02 2.734992065429688068e+02 2.735047912597656250e+02 2.735190124511718750e+02 2.735394287109375000e+02 2.735662536621093750e+02 2.736013488769531250e+02 2.736372985839843750e+02 2.736753234863281250e+02 2.737120971679688068e+02 2.737413635253906250e+02 2.737706604003906250e+02 2.737950744628906250e+02 2.738195190429688068e+02 2.738465881347656250e+02 2.738741149902343750e+02 2.739033813476561932e+02 2.739333801269531250e+02 2.739624328613281250e+02 2.739907836914061932e+02 2.740166625976561932e+02 2.740390930175781250e+02 2.740592041015625000e+02 2.740731201171875000e+02 2.740859680175781250e+02 2.740917053222656250e+02 2.740974121093750000e+02 2.740939941406250000e+02 2.740904235839843750e+02 2.740814819335938068e+02 2.740714416503906250e+02 2.740655517578125000e+02 2.740614929199218750e+02 2.740622863769531250e+02 2.740671691894531250e+02 2.740849914550781250e+02 2.741223754882811932e+02 2.741601562500000000e+02 2.741989440917968750e+02 2.742380065917968750e+02 2.742792053222656250e+02 2.743204345703125000e+02 2.743672180175781250e+02 2.744142761230468750e+02 2.744527282714843750e+02 2.744891967773438068e+02 2.745250854492188068e+02 2.745606384277343750e+02 2.745979919433593750e+02 2.746369934082031250e+02 2.746716613769531250e+02 2.746992187500000000e+02 2.747242736816406250e+02 2.747409973144531250e+02 2.747568054199218750e+02 2.747628784179688068e+02 2.747689514160156250e+02 2.747774963378906250e+02 2.747861938476561932e+02 2.747985534667968750e+02 2.748118896484375000e+02 2.748259887695311932e+02 2.748404541015625000e+02 2.748498840332031250e+02 2.748543395996093750e+02 2.748613891601561932e+02 2.748731689453125000e+02 2.748853454589843750e+02 2.748990783691406250e+02 2.749126892089843750e+02 2.749243164062500000e+02 2.749359130859375000e+02 2.749478759765625000e+02 2.749598388671875000e+02 2.749701538085938068e+02 2.749800109863281250e+02 2.749879150390625000e+02 2.749946289062500000e+02 2.749961242675781250e+02 2.749919738769531250e+02 2.749884033203125000e+02 2.749859619140625000e+02 2.749839782714843750e+02 2.749839477539061932e+02 2.749842224121093750e+02 2.749904785156250000e+02 2.749967651367188068e+02 2.750061645507811932e+02 2.750159301757811932e+02 2.750275268554688068e+02 2.750397338867188068e+02 2.750532226562500000e+02 2.750675659179688068e+02 2.750824279785156250e+02 2.750979309082031250e+02 2.751135253906250000e+02 2.751292724609375000e+02 2.751450195312500000e+02 2.751606750488281250e+02 2.751764221191406250e+02
2.734028015136718750e+02 2.734093933105468750e+02 2.734159545898438068e+02 2.734270324707031250e+02 2.734386596679688068e+02 2.734539184570311932e+02 2.734703979492188068e+02 2.734867858886718750e+02 2.735031433105468750e+02 2.735182495117188068e+02 2.735319519042968750e+02 2.735431518554688068e+02 2.735488586425781250e+02 2.735526428222656250e+02 2.735467834472656250e+02 2.735408630371093750e+02 2.735316467285156250e+02 2.735224304199218750e+02 2.735122680664061932e+02 2.735019836425781250e+02 2.735013122558593750e+02 2.735042114257811932e+02 2.735181884765625000e+02 2.735400695800781250e+02 2.735700683593750000e+02 2.736105346679688068e+02 2.736509094238281250e+02 2.736910705566406250e+02 2.737294616699218750e+02 2.737574157714843750e+02 2.737853698730468750e+02 2.738064880371093750e+02 2.738276062011718750e+02 2.738522644042968750e+02 2.738775329589843750e+02 2.739045104980468750e+02 2.739322204589843750e+02 2.739588928222656250e+02 2.739848022460938068e+02 2.740080566406250000e+02 2.740276184082031250e+02 2.740469970703125000e+02 2.740659179687500000e+02 2.740838012695311932e+02 2.740943908691406250e+02 2.741049499511718750e+02 2.741044616699218750e+02 2.741037597656250000e+02 2.740947570800781250e+02 2.740841064453125000e+02 2.740773925781250000e+02 2.740723876953125000e+02 2.740723876953125000e+02 2.740765380859375000e+02 2.740948486328125000e+02 2.741346740722656250e+02 2.741743469238281250e+02 2.742136230468750000e+02 2.742528991699218750e+02 2.742922363281250000e+02 2.743315734863281250e+02 2.743720092773438068e+02 2.744125366210938068e+02 2.744490356445311932e+02 2.744845886230468750e+02 2.745205383300781250e+02 2.745566406250000000e+02 2.745945129394531250e+02 2.746339721679688068e+02 2.746685791015625000e+02 2.746952209472656250e+02 2.747193298339843750e+02 2.747350158691406250e+02 2.747497863769531250e+02 2.747548828125000000e+02 2.747600097656250000e+02 2.747686157226561932e+02 2.747774353027343750e+02 2.747887573242188068e+02 2.748007202148438068e+02 2.748129577636718750e+02 2.748253784179688068e+02 2.748334655761718750e+02 2.748373413085938068e+02 2.748425903320311932e+02 2.748503723144531250e+02 2.748583984375000000e+02 2.748674316406250000e+02 2.748764343261718750e+02 2.748849487304688068e+02 2.748934326171875000e+02 2.749057617187500000e+02 2.749184265136718750e+02 2.749311828613281250e+02 2.749440002441406250e+02 2.749562377929688068e+02 2.749681701660156250e+02 2.749743347167968750e+02 2.749743652343750000e+02 2.749743652343750000e+02 2.749743652343750000e+02 2.749745483398438068e+02 2.749753723144531250e+02 2.749764099121093750e+02 2.749822998046875000e+02 2.749882202148438068e+02 2.749971618652343750e+02 2.750064697265625000e+02 2.750177001953125000e+02 2.750295410156250000e+02 2.750430908203125000e+02 2.750577392578125000e+02 2.750714111328125000e+02 2.750839233398438068e+02 2.750964965820311932e+02 2.751091308593750000e+02 2.751219787597656250e+02 2.751360168457031250e+02 2.751502075195311932e+02
2.733911132812500000e+02 2.733993530273438068e+02 2.734075622558593750e+02 2.734194946289061932e+02 2.734318542480468750e+02 2.734478454589843750e+02 2.734650573730468750e+02 2.734813842773438068e+02 2.734971618652343750e+02 2.735121154785156250e+02 2.735261230468750000e+02 2.735390930175781250e+02 2.735497131347656250e+02 2.735582885742188068e+02 2.735567626953125000e+02 2.735550537109375000e+02 2.735465393066406250e+02 2.735380249023438068e+02 2.735234069824218750e+02 2.735079040527343750e+02 2.735045776367188068e+02 2.735057373046875000e+02 2.735195922851561932e+02 2.735424804687500000e+02 2.735746459960938068e+02 2.736186218261718750e+02 2.736618041992188068e+02 2.737029724121093750e+02 2.737421264648438068e+02 2.737693481445311932e+02 2.737965393066406250e+02 2.738158874511718750e+02 2.738352355957031250e+02 2.738582153320311932e+02 2.738818359375000000e+02 2.739067382812500000e+02 2.739322204589843750e+02 2.739565124511718750e+02 2.739799194335938068e+02 2.740006408691406250e+02 2.740176086425781250e+02 2.740361633300781250e+02 2.740589294433593750e+02 2.740806579589843750e+02 2.740952453613281250e+02 2.741098022460938068e+02 2.741120910644531250e+02 2.741141052246093750e+02 2.741065368652343750e+02 2.740970458984375000e+02 2.740907287597656250e+02 2.740858764648438068e+02 2.740856018066406250e+02 2.740891723632811932e+02 2.741074829101561932e+02 2.741481933593750000e+02 2.741885070800781250e+02 2.742276611328125000e+02 2.742666625976561932e+02 2.743041687011718750e+02 2.743416748046875000e+02 2.743762512207031250e+02 2.744107055664061932e+02 2.744443664550781250e+02 2.744778747558593750e+02 2.745128784179688068e+02 2.745486145019531250e+02 2.745867309570311932e+02 2.746270141601561932e+02 2.746614379882811932e+02 2.746862182617188068e+02 2.747086181640625000e+02 2.747230834960938068e+02 2.747367553710938068e+02 2.747416687011718750e+02 2.747465820312500000e+02 2.747554016113281250e+02 2.747644653320311932e+02 2.747746276855468750e+02 2.747850341796875000e+02 2.747951660156250000e+02 2.748051452636718750e+02 2.748116149902343750e+02 2.748146667480468750e+02 2.748179016113281250e+02 2.748215026855468750e+02 2.748252868652343750e+02 2.748297424316406250e+02 2.748343200683593750e+02 2.748403625488281250e+02 2.748464050292968750e+02 2.748589172363281250e+02 2.748719787597656250e+02 2.748866577148438068e+02 2.749017944335938068e+02 2.749176635742188068e+02 2.749339599609375000e+02 2.749444580078125000e+02 2.749487304687500000e+02 2.749523315429688068e+02 2.749546508789061932e+02 2.749567871093750000e+02 2.749581604003906250e+02 2.749597473144531250e+02 2.749655761718750000e+02 2.749714355468750000e+02 2.749804382324218750e+02 2.749898376464843750e+02 2.750010681152343750e+02 2.750129089355468750e+02 2.750260314941406250e+02 2.750399475097656250e+02 2.750522155761718750e+02 2.750625305175781250e+02 2.750729370117188068e+02 2.750835571289061932e+02 2.750946044921875000e+02 2.751078186035156250e+02 2.751212768554688068e+02
2.733774719238281250e+02 2.733891601562500000e+02 2.734008483886718750e+02 2.734157714843750000e+02 2.734310607910156250e+02 2.734481201171875000e+02 2.734658203125000000e+02 2.734805603027343750e+02 2.734933471679688068e+02 2.735058288574218750e+02 2.735179138183593750e+02 2.735314636230468750e+02 2.735482788085938068e+02 2.735629272460938068e+02 2.735667114257811932e+02 2.735702514648438068e+02 2.735629272460938068e+02 2.735556335449218750e+02 2.735363159179688068e+02 2.735153198242188068e+02 2.735112304687500000e+02 2.735133972167968750e+02 2.735275573730468750e+02 2.735502929687500000e+02 2.735814819335938068e+02 2.736235351562500000e+02 2.736646423339843750e+02 2.737034606933593750e+02 2.737407531738281250e+02 2.737690124511718750e+02 2.737973022460938068e+02 2.738193054199218750e+02 2.738413391113281250e+02 2.738649291992188068e+02 2.738887634277343750e+02 2.739122619628906250e+02 2.739356384277343750e+02 2.739575500488281250e+02 2.739783630371093750e+02 2.739968261718750000e+02 2.740120239257811932e+02 2.740293884277343750e+02 2.740524902343750000e+02 2.740746765136718750e+02 2.740906372070311932e+02 2.741065673828125000e+02 2.741111450195311932e+02 2.741155090332031250e+02 2.741137390136718750e+02 2.741107482910156250e+02 2.741086425781250000e+02 2.741069641113281250e+02 2.741081237792968750e+02 2.741116638183593750e+02 2.741284790039061932e+02 2.741654663085938068e+02 2.742025451660156250e+02 2.742399291992188068e+02 2.742771301269531250e+02 2.743129272460938068e+02 2.743487243652343750e+02 2.743787841796875000e+02 2.744085998535156250e+02 2.744368896484375000e+02 2.744648437500000000e+02 2.744959106445311932e+02 2.745285644531250000e+02 2.745661621093750000e+02 2.746083068847656250e+02 2.746421508789061932e+02 2.746622619628906250e+02 2.746806945800781250e+02 2.746934509277343750e+02 2.747057189941406250e+02 2.747127685546875000e+02 2.747197875976561932e+02 2.747292785644531250e+02 2.747389526367188068e+02 2.747475585937500000e+02 2.747559204101561932e+02 2.747630615234375000e+02 2.747695922851561932e+02 2.747735290527343750e+02 2.747749633789061932e+02 2.747755126953125000e+02 2.747745056152343750e+02 2.747737731933593750e+02 2.747740173339843750e+02 2.747745666503906250e+02 2.747801818847656250e+02 2.747857666015625000e+02 2.747978515625000000e+02 2.748104858398438068e+02 2.748255004882811932e+02 2.748411865234375000e+02 2.748584594726561932e+02 2.748767089843750000e+02 2.748903808593750000e+02 2.748991394042968750e+02 2.749064025878906250e+02 2.749106445312500000e+02 2.749142761230468750e+02 2.749153747558593750e+02 2.749167175292968750e+02 2.749233703613281250e+02 2.749300231933593750e+02 2.749407043457031250e+02 2.749518432617188068e+02 2.749642639160156250e+02 2.749770507812500000e+02 2.749882507324218750e+02 2.749984436035156250e+02 2.750086669921875000e+02 2.750190124511718750e+02 2.750298461914061932e+02 2.750417785644531250e+02 2.750542297363281250e+02 2.750692138671875000e+02 2.750843200683593750e+02
2.733638916015625000e+02 2.733787841796875000e+02 2.733936767578125000e+02 2.734113159179688068e+02 2.734292602539061932e+02 2.734472351074218750e+02 2.734652099609375000e+02 2.734784240722656250e+02 2.734885253906250000e+02 2.734986877441406250e+02 2.735089416503906250e+02 2.735228881835938068e+02 2.735449829101561932e+02 2.735647888183593750e+02 2.735730895996093750e+02 2.735810852050781250e+02 2.735748901367188068e+02 2.735687255859375000e+02 2.735457153320311932e+02 2.735203247070311932e+02 2.735157775878906250e+02 2.735189819335938068e+02 2.735333862304688068e+02 2.735557556152343750e+02 2.735857849121093750e+02 2.736256408691406250e+02 2.736646728515625000e+02 2.737016601562500000e+02 2.737376098632811932e+02 2.737674255371093750e+02 2.737972106933593750e+02 2.738222961425781250e+02 2.738473815917968750e+02 2.738717651367188068e+02 2.738960266113281250e+02 2.739182434082031250e+02 2.739396667480468750e+02 2.739593505859375000e+02 2.739776611328125000e+02 2.739938964843750000e+02 2.740072937011718750e+02 2.740233154296875000e+02 2.740465087890625000e+02 2.740689086914061932e+02 2.740858459472656250e+02 2.741028137207031250e+02 2.741092529296875000e+02 2.741154785156250000e+02 2.741188354492188068e+02 2.741216125488281250e+02 2.741235351562500000e+02 2.741250610351561932e+02 2.741279296875000000e+02 2.741319580078125000e+02 2.741475830078125000e+02 2.741809082031250000e+02 2.742147216796875000e+02 2.742502136230468750e+02 2.742855224609375000e+02 2.743195190429688068e+02 2.743535156250000000e+02 2.743793640136718750e+02 2.744048767089843750e+02 2.744281616210938068e+02 2.744509887695311932e+02 2.744783935546875000e+02 2.745080566406250000e+02 2.745449523925781250e+02 2.745884704589843750e+02 2.746215820312500000e+02 2.746375122070311932e+02 2.746523742675781250e+02 2.746636962890625000e+02 2.746748046875000000e+02 2.746838684082031250e+02 2.746929321289061932e+02 2.747029724121093750e+02 2.747131042480468750e+02 2.747200927734375000e+02 2.747263183593750000e+02 2.747304687500000000e+02 2.747334594726561932e+02 2.747348022460938068e+02 2.747344970703125000e+02 2.747324829101561932e+02 2.747273559570311932e+02 2.747225646972656250e+02 2.747190856933593750e+02 2.747161560058593750e+02 2.747214050292968750e+02 2.747266845703125000e+02 2.747383728027343750e+02 2.747506408691406250e+02 2.747658996582031250e+02 2.747820129394531250e+02 2.748004455566406250e+02 2.748202514648438068e+02 2.748367309570311932e+02 2.748496398925781250e+02 2.748602294921875000e+02 2.748663024902343750e+02 2.748713989257811932e+02 2.748723449707031250e+02 2.748735656738281250e+02 2.748809814453125000e+02 2.748883972167968750e+02 2.749006042480468750e+02 2.749133605957031250e+02 2.749268188476561932e+02 2.749404907226561932e+02 2.749500122070311932e+02 2.749568176269531250e+02 2.749652404785156250e+02 2.749755859375000000e+02 2.749867858886718750e+02 2.749998474121093750e+02 2.750135192871093750e+02 2.750299987792968750e+02 2.750465393066406250e+02
2.733512268066406250e+02 2.733667602539061932e+02 2.733822937011718750e+02 2.734005737304688068e+02 2.734191589355468750e+02 2.734363708496093750e+02 2.734530944824218750e+02 2.734654235839843750e+02 2.734748840332031250e+02 2.734843444824218750e+02 2.734937133789061932e+02 2.735062866210938068e+02 2.735258178710938068e+02 2.735430908203125000e+02 2.735491638183593750e+02 2.735549621582031250e+02 2.735492553710938068e+02 2.735435791015625000e+02 2.735250244140625000e+02 2.735046691894531250e+02 2.735024108886718750e+02 2.735068969726561932e+02 2.735207824707031250e+02 2.735413818359375000e+02 2.735685424804688068e+02 2.736041870117188068e+02 2.736409912109375000e+02 2.736806640625000000e+02 2.737196960449218750e+02 2.737549133300781250e+02 2.737901611328125000e+02 2.738214721679688068e+02 2.738527832031250000e+02 2.738796691894531250e+02 2.739058227539061932e+02 2.739282531738281250e+02 2.739491271972656250e+02 2.739676208496093750e+02 2.739842834472656250e+02 2.739986267089843750e+02 2.740097656250000000e+02 2.740235900878906250e+02 2.740446472167968750e+02 2.740649108886718750e+02 2.740797729492188068e+02 2.740946350097656250e+02 2.740990295410156250e+02 2.741032104492188068e+02 2.741060180664061932e+02 2.741085815429688068e+02 2.741126403808593750e+02 2.741173706054688068e+02 2.741244812011718750e+02 2.741335449218750000e+02 2.741508789062500000e+02 2.741806945800781250e+02 2.742112121582031250e+02 2.742438049316406250e+02 2.742762756347656250e+02 2.743078613281250000e+02 2.743394470214843750e+02 2.743634948730468750e+02 2.743872070312500000e+02 2.744089965820311932e+02 2.744303588867188068e+02 2.744559936523438068e+02 2.744837646484375000e+02 2.745183105468750000e+02 2.745590515136718750e+02 2.745903320312500000e+02 2.746059875488281250e+02 2.746207885742188068e+02 2.746327819824218750e+02 2.746446838378906250e+02 2.746551513671875000e+02 2.746656494140625000e+02 2.746751098632811932e+02 2.746845092773438068e+02 2.746892395019531250e+02 2.746927490234375000e+02 2.746934509277343750e+02 2.746926269531250000e+02 2.746907348632811932e+02 2.746877746582031250e+02 2.746839904785156250e+02 2.746786499023438068e+02 2.746738586425781250e+02 2.746710205078125000e+02 2.746687622070311932e+02 2.746746215820311932e+02 2.746804504394531250e+02 2.746923217773438068e+02 2.747047424316406250e+02 2.747195434570311932e+02 2.747350463867188068e+02 2.747523193359375000e+02 2.747705688476561932e+02 2.747867431640625000e+02 2.748005981445311932e+02 2.748121948242188068e+02 2.748193054199218750e+02 2.748254394531250000e+02 2.748273620605468750e+02 2.748294982910156250e+02 2.748372802734375000e+02 2.748450622558593750e+02 2.748574829101561932e+02 2.748704528808593750e+02 2.748840637207031250e+02 2.748978576660156250e+02 2.749075012207031250e+02 2.749144592285156250e+02 2.749228820800781250e+02 2.749330139160156250e+02 2.749439697265625000e+02 2.749566650390625000e+02 2.749699096679688068e+02 2.749858093261718750e+02 2.750018005371093750e+02
2.733385620117188068e+02 2.733547363281250000e+02 2.733709106445311932e+02 2.733898315429688068e+02 2.734090576171875000e+02 2.734254760742188068e+02 2.734409484863281250e+02 2.734524230957031250e+02 2.734612731933593750e+02 2.734699707031250000e+02 2.734784851074218750e+02 2.734896545410156250e+02 2.735066223144531250e+02 2.735214233398438068e+02 2.735252380371093750e+02 2.735288696289061932e+02 2.735236511230468750e+02 2.735184326171875000e+02 2.735043640136718750e+02 2.734890441894531250e+02 2.734890747070311932e+02 2.734947814941406250e+02 2.735081481933593750e+02 2.735269775390625000e+02 2.735513305664061932e+02 2.735827026367188068e+02 2.736173095703125000e+02 2.736596679687500000e+02 2.737017822265625000e+02 2.737424316406250000e+02 2.737830810546875000e+02 2.738206176757811932e+02 2.738581542968750000e+02 2.738875732421875000e+02 2.739156494140625000e+02 2.739382324218750000e+02 2.739585571289061932e+02 2.739758911132811932e+02 2.739908752441406250e+02 2.740033264160156250e+02 2.740122375488281250e+02 2.740238647460938068e+02 2.740427856445311932e+02 2.740609436035156250e+02 2.740736999511718750e+02 2.740864868164061932e+02 2.740888366699218750e+02 2.740909729003906250e+02 2.740932312011718750e+02 2.740955200195311932e+02 2.741017150878906250e+02 2.741096801757811932e+02 2.741210021972656250e+02 2.741351623535156250e+02 2.741541748046875000e+02 2.741805114746093750e+02 2.742077026367188068e+02 2.742373962402343750e+02 2.742670288085938068e+02 2.742962036132811932e+02 2.743253784179688068e+02 2.743476257324218750e+02 2.743695678710938068e+02 2.743898315429688068e+02 2.744096984863281250e+02 2.744335937500000000e+02 2.744595031738281250e+02 2.744916992187500000e+02 2.745296325683593750e+02 2.745590515136718750e+02 2.745744323730468750e+02 2.745892028808593750e+02 2.746018981933593750e+02 2.746145324707031250e+02 2.746264343261718750e+02 2.746383361816406250e+02 2.746472473144531250e+02 2.746559448242188068e+02 2.746583862304688068e+02 2.746591796875000000e+02 2.746564331054688068e+02 2.746517639160156250e+02 2.746466674804688068e+02 2.746410522460938068e+02 2.746354675292968750e+02 2.746299438476561932e+02 2.746251220703125000e+02 2.746229858398438068e+02 2.746213989257811932e+02 2.746278381347656250e+02 2.746342468261718750e+02 2.746463012695311932e+02 2.746588439941406250e+02 2.746732177734375000e+02 2.746881103515625000e+02 2.747041625976561932e+02 2.747209167480468750e+02 2.747367248535156250e+02 2.747515563964843750e+02 2.747641601562500000e+02 2.747723083496093750e+02 2.747794799804688068e+02 2.747823486328125000e+02 2.747854614257811932e+02 2.747936096191406250e+02 2.748017272949218750e+02 2.748143920898438068e+02 2.748275451660156250e+02 2.748413085937500000e+02 2.748552551269531250e+02 2.748650207519531250e+02 2.748721313476561932e+02 2.748805236816406250e+02 2.748904724121093750e+02 2.749011535644531250e+02 2.749134826660156250e+02 2.749263000488281250e+02 2.749416503906250000e+02 2.749570617675781250e+02
2.733211059570311932e+02 2.733367919921875000e+02 2.733524780273438068e+02 2.733706970214843750e+02 2.733891906738281250e+02 2.734042663574218750e+02 2.734182128906250000e+02 2.734292602539061932e+02 2.734384765625000000e+02 2.734472656250000000e+02 2.734555358886718750e+02 2.734650268554688068e+02 2.734772949218750000e+02 2.734875488281250000e+02 2.734880065917968750e+02 2.734883422851561932e+02 2.734839477539061932e+02 2.734795532226561932e+02 2.734721679687500000e+02 2.734643249511718750e+02 2.734680175781250000e+02 2.734759521484375000e+02 2.734897155761718750e+02 2.735076293945311932e+02 2.735299377441406250e+02 2.735578918457031250e+02 2.735907287597656250e+02 2.736354064941406250e+02 2.736801452636718750e+02 2.737252197265625000e+02 2.737702941894531250e+02 2.738129882812500000e+02 2.738557128906250000e+02 2.738879089355468750e+02 2.739183654785156250e+02 2.739411010742188068e+02 2.739606933593750000e+02 2.739766540527343750e+02 2.739897766113281250e+02 2.740003051757811932e+02 2.740072631835938068e+02 2.740168151855468750e+02 2.740333862304688068e+02 2.740492553710938068e+02 2.740602111816406250e+02 2.740711669921875000e+02 2.740724487304688068e+02 2.740735473632811932e+02 2.740755310058593750e+02 2.740776672363281250e+02 2.740860595703125000e+02 2.740973205566406250e+02 2.741129455566406250e+02 2.741322631835938068e+02 2.741531982421875000e+02 2.741765747070311932e+02 2.742006530761718750e+02 2.742267761230468750e+02 2.742528686523438068e+02 2.742786560058593750e+02 2.743044738769531250e+02 2.743248596191406250e+02 2.743450622558593750e+02 2.743655395507811932e+02 2.743860778808593750e+02 2.744096679687500000e+02 2.744348144531250000e+02 2.744642333984375000e+02 2.744975585937500000e+02 2.745247192382811932e+02 2.745417175292968750e+02 2.745580444335938068e+02 2.745720825195311932e+02 2.745859985351561932e+02 2.745982971191406250e+02 2.746105957031250000e+02 2.746183776855468750e+02 2.746258850097656250e+02 2.746264953613281250e+02 2.746253356933593750e+02 2.746203613281250000e+02 2.746133422851561932e+02 2.746060791015625000e+02 2.745985717773438068e+02 2.745922241210938068e+02 2.745879516601561932e+02 2.745845031738281250e+02 2.745841979980468750e+02 2.745843811035156250e+02 2.745911560058593750e+02 2.745979309082031250e+02 2.746097412109375000e+02 2.746219482421875000e+02 2.746353149414061932e+02 2.746489868164061932e+02 2.746630859375000000e+02 2.746774291992188068e+02 2.746917114257811932e+02 2.747059020996093750e+02 2.747183837890625000e+02 2.747274475097656250e+02 2.747357177734375000e+02 2.747406311035156250e+02 2.747456970214843750e+02 2.747544250488281250e+02 2.747631225585938068e+02 2.747754821777343750e+02 2.747882690429688068e+02 2.748015136718750000e+02 2.748149414062500000e+02 2.748250427246093750e+02 2.748329772949218750e+02 2.748418884277343750e+02 2.748519287109375000e+02 2.748624877929688068e+02 2.748740844726561932e+02 2.748860168457031250e+02 2.748994750976561932e+02 2.749131164550781250e+02
2.733034667968750000e+02 2.733186035156250000e+02 2.733337707519531250e+02 2.733511962890625000e+02 2.733689270019531250e+02 2.733826293945311932e+02 2.733950195312500000e+02 2.734057006835938068e+02 2.734152832031250000e+02 2.734241638183593750e+02 2.734322204589843750e+02 2.734400939941406250e+02 2.734475097656250000e+02 2.734531860351561932e+02 2.734501953125000000e+02 2.734472045898438068e+02 2.734436645507811932e+02 2.734400939941406250e+02 2.734394836425781250e+02 2.734392395019531250e+02 2.734466247558593750e+02 2.734568176269531250e+02 2.734710083007811932e+02 2.734880371093750000e+02 2.735083923339843750e+02 2.735329284667968750e+02 2.735640258789061932e+02 2.736109924316406250e+02 2.736583557128906250e+02 2.737078247070311932e+02 2.737572631835938068e+02 2.738051147460938068e+02 2.738529357910156250e+02 2.738879394531250000e+02 2.739207763671875000e+02 2.739436950683593750e+02 2.739625244140625000e+02 2.739770812988281250e+02 2.739883117675781250e+02 2.739969482421875000e+02 2.740019531250000000e+02 2.740094604492188068e+02 2.740236816406250000e+02 2.740372619628906250e+02 2.740464172363281250e+02 2.740555419921875000e+02 2.740558166503906250e+02 2.740559082031250000e+02 2.740575866699218750e+02 2.740596008300781250e+02 2.740702209472656250e+02 2.740847778320311932e+02 2.741047058105468750e+02 2.741291809082031250e+02 2.741520385742188068e+02 2.741724853515625000e+02 2.741934509277343750e+02 2.742159729003906250e+02 2.742384948730468750e+02 2.742608642578125000e+02 2.742832641601561932e+02 2.743018493652343750e+02 2.743202514648438068e+02 2.743410339355468750e+02 2.743623352050781250e+02 2.743857116699218750e+02 2.744100952148438068e+02 2.744367065429688068e+02 2.744653625488281250e+02 2.744902648925781250e+02 2.745089416503906250e+02 2.745268859863281250e+02 2.745423278808593750e+02 2.745575256347656250e+02 2.745701904296875000e+02 2.745828247070311932e+02 2.745894775390625000e+02 2.745957336425781250e+02 2.745945739746093750e+02 2.745914611816406250e+02 2.745843200683593750e+02 2.745749816894531250e+02 2.745656433105468750e+02 2.745563049316406250e+02 2.745491943359375000e+02 2.745462036132811932e+02 2.745441894531250000e+02 2.745458374023438068e+02 2.745477905273438068e+02 2.745549316406250000e+02 2.745620422363281250e+02 2.745735473632811932e+02 2.745854797363281250e+02 2.745977783203125000e+02 2.746101989746093750e+02 2.746222839355468750e+02 2.746341857910156250e+02 2.746468811035156250e+02 2.746604003906250000e+02 2.746727294921875000e+02 2.746826782226561932e+02 2.746920471191406250e+02 2.746990356445311932e+02 2.747061157226561932e+02 2.747154235839843750e+02 2.747247009277343750e+02 2.747367553710938068e+02 2.747491149902343750e+02 2.747618713378906250e+02 2.747747497558593750e+02 2.747851562500000000e+02 2.747939453125000000e+02 2.748033752441406250e+02 2.748135681152343750e+02 2.748239746093750000e+02 2.748348693847656250e+02 2.748458862304688068e+02 2.748574218750000000e+02 2.748692016601561932e+02
2.732762145996093750e+02 2.732904357910156250e+02 2.733046875000000000e+02 2.733201904296875000e+02 2.733358459472656250e+02 2.733482666015625000e+02 2.733596191406250000e+02 2.733703613281250000e+02 2.733807373046875000e+02 2.733901977539061932e+02 2.733985900878906250e+02 2.734055480957031250e+02 2.734093017578125000e+02 2.734117431640625000e+02 2.734077758789061932e+02 2.734038696289061932e+02 2.734022827148438068e+02 2.734006652832031250e+02 2.734054260253906250e+02 2.734110412597656250e+02 2.734228515625000000e+02 2.734369506835938068e+02 2.734537353515625000e+02 2.734724731445311932e+02 2.734935607910156250e+02 2.735176086425781250e+02 2.735479125976561932e+02 2.735934448242188068e+02 2.736395568847656250e+02 2.736889038085938068e+02 2.737382507324218750e+02 2.737870483398438068e+02 2.738358764648438068e+02 2.738729553222656250e+02 2.739080810546875000e+02 2.739302062988281250e+02 2.739469909667968750e+02 2.739590454101561932e+02 2.739674072265625000e+02 2.739738769531250000e+02 2.739777221679688068e+02 2.739840698242188068e+02 2.739970703125000000e+02 2.740096740722656250e+02 2.740195617675781250e+02 2.740294494628906250e+02 2.740332031250000000e+02 2.740368347167968750e+02 2.740425720214843750e+02 2.740486755371093750e+02 2.740629272460938068e+02 2.740808410644531250e+02 2.741035156250000000e+02 2.741302185058593750e+02 2.741535949707031250e+02 2.741718750000000000e+02 2.741901855468750000e+02 2.742085266113281250e+02 2.742267761230468750e+02 2.742443542480468750e+02 2.742619323730468750e+02 2.742769775390625000e+02 2.742919311523438068e+02 2.743139648437500000e+02 2.743376159667968750e+02 2.743621826171875000e+02 2.743872070312500000e+02 2.744113464355468750e+02 2.744346618652343750e+02 2.744572143554688068e+02 2.744784851074218750e+02 2.744986877441406250e+02 2.745153198242188068e+02 2.745315246582031250e+02 2.745430297851561932e+02 2.745545043945311932e+02 2.745597534179688068e+02 2.745645751953125000e+02 2.745630187988281250e+02 2.745597839355468750e+02 2.745530395507811932e+02 2.745443420410156250e+02 2.745354309082031250e+02 2.745262451171875000e+02 2.745197753906250000e+02 2.745181579589843750e+02 2.745174865722656250e+02 2.745202331542968750e+02 2.745232238769531250e+02 2.745296325683593750e+02 2.745360107421875000e+02 2.745461120605468750e+02 2.745565185546875000e+02 2.745671386718750000e+02 2.745778198242188068e+02 2.745880737304688068e+02 2.745980529785156250e+02 2.746089782714843750e+02 2.746209106445311932e+02 2.746325378417968750e+02 2.746436462402343750e+02 2.746546020507811932e+02 2.746649169921875000e+02 2.746752319335938068e+02 2.746857604980468750e+02 2.746962890625000000e+02 2.747079467773438068e+02 2.747197265625000000e+02 2.747313842773438068e+02 2.747430114746093750e+02 2.747528076171875000e+02 2.747614440917968750e+02 2.747711486816406250e+02 2.747821655273438068e+02 2.747930603027343750e+02 2.748036804199218750e+02 2.748139648437500000e+02 2.748225402832031250e+02 2.748314514160156250e+02
2.732467956542968750e+02 2.732600097656250000e+02 2.732732238769531250e+02 2.732865295410156250e+02 2.732998352050781250e+02 2.733109741210938068e+02 2.733214111328125000e+02 2.733323364257811932e+02 2.733435668945311932e+02 2.733537292480468750e+02 2.733625793457031250e+02 2.733688049316406250e+02 2.733691406250000000e+02 2.733687133789061932e+02 2.733643188476561932e+02 2.733600463867188068e+02 2.733606567382811932e+02 2.733612365722656250e+02 2.733710327148438068e+02 2.733821411132811932e+02 2.733985290527343750e+02 2.734169006347656250e+02 2.734368286132811932e+02 2.734578247070311932e+02 2.734802551269531250e+02 2.735044860839843750e+02 2.735342407226561932e+02 2.735774841308593750e+02 2.736214294433593750e+02 2.736696472167968750e+02 2.737178344726561932e+02 2.737666931152343750e+02 2.738155517578125000e+02 2.738545532226561932e+02 2.738919067382811932e+02 2.739130249023438068e+02 2.739274902343750000e+02 2.739367675781250000e+02 2.739420166015625000e+02 2.739462890625000000e+02 2.739491882324218750e+02 2.739545593261718750e+02 2.739665527343750000e+02 2.739784851074218750e+02 2.739897155761718750e+02 2.740009765625000000e+02 2.740092468261718750e+02 2.740174560546875000e+02 2.740281677246093750e+02 2.740393981933593750e+02 2.740575866699218750e+02 2.740788879394531250e+02 2.741039733886718750e+02 2.741322326660156250e+02 2.741557617187500000e+02 2.741720886230468750e+02 2.741878356933593750e+02 2.742018432617188068e+02 2.742156982421875000e+02 2.742281188964843750e+02 2.742405700683593750e+02 2.742517089843750000e+02 2.742628173828125000e+02 2.742863159179688068e+02 2.743126831054688068e+02 2.743387756347656250e+02 2.743647155761718750e+02 2.743864440917968750e+02 2.744042968750000000e+02 2.744244995117188068e+02 2.744485778808593750e+02 2.744711914062500000e+02 2.744889526367188068e+02 2.745060729980468750e+02 2.745160827636718750e+02 2.745260620117188068e+02 2.745298156738281250e+02 2.745331726074218750e+02 2.745315246582031250e+02 2.745285949707031250e+02 2.745227966308593750e+02 2.745154724121093750e+02 2.745075073242188068e+02 2.744989929199218750e+02 2.744934387207031250e+02 2.744932556152343750e+02 2.744938659667968750e+02 2.744975891113281250e+02 2.745013732910156250e+02 2.745068359375000000e+02 2.745122680664061932e+02 2.745206604003906250e+02 2.745293273925781250e+02 2.745380859375000000e+02 2.745469055175781250e+02 2.745553283691406250e+02 2.745635375976561932e+02 2.745726623535156250e+02 2.745827636718750000e+02 2.745936279296875000e+02 2.746059265136718750e+02 2.746185302734375000e+02 2.746324768066406250e+02 2.746463317871093750e+02 2.746582641601561932e+02 2.746701660156250000e+02 2.746813964843750000e+02 2.746925659179688068e+02 2.747030029296875000e+02 2.747132263183593750e+02 2.747222290039061932e+02 2.747304382324218750e+02 2.747403869628906250e+02 2.747523498535156250e+02 2.747638549804688068e+02 2.747743225097656250e+02 2.747839050292968750e+02 2.747893066406250000e+02 2.747951049804688068e+02
2.732106018066406250e+02 2.732231750488281250e+02 2.732357482910156250e+02 2.732481689453125000e+02 2.732605895996093750e+02 2.732719726562500000e+02 2.732830200195311932e+02 2.732937927246093750e+02 2.733044128417968750e+02 2.733136596679688068e+02 2.733212585449218750e+02 2.733261108398438068e+02 2.733250122070311932e+02 2.733236083984375000e+02 2.733208312988281250e+02 2.733182067871093750e+02 2.733215026855468750e+02 2.733248291015625000e+02 2.733379516601561932e+02 2.733524475097656250e+02 2.733716430664061932e+02 2.733926086425781250e+02 2.734151000976561932e+02 2.734386596679688068e+02 2.734636230468750000e+02 2.734903564453125000e+02 2.735222473144531250e+02 2.735666503906250000e+02 2.736116333007811932e+02 2.736599121093750000e+02 2.737081909179688068e+02 2.737562866210938068e+02 2.738043518066406250e+02 2.738419494628906250e+02 2.738777465820311932e+02 2.738976440429688068e+02 2.739110107421875000e+02 2.739196166992188068e+02 2.739245300292968750e+02 2.739289855957031250e+02 2.739328308105468750e+02 2.739389343261718750e+02 2.739512023925781250e+02 2.739632873535156250e+02 2.739743347167968750e+02 2.739854125976561932e+02 2.739930419921875000e+02 2.740006103515625000e+02 2.740113220214843750e+02 2.740226745605468750e+02 2.740402221679688068e+02 2.740605773925781250e+02 2.740843200683593750e+02 2.741109313964843750e+02 2.741336364746093750e+02 2.741503906250000000e+02 2.741657409667968750e+02 2.741769714355468750e+02 2.741880798339843750e+02 2.741978454589843750e+02 2.742076416015625000e+02 2.742214965820311932e+02 2.742355346679688068e+02 2.742609558105468750e+02 2.742890014648438068e+02 2.743153076171875000e+02 2.743407897949218750e+02 2.743603210449218750e+02 2.743744201660156250e+02 2.743921813964843750e+02 2.744160766601561932e+02 2.744385681152343750e+02 2.744565124511718750e+02 2.744738159179688068e+02 2.744839782714843750e+02 2.744941406250000000e+02 2.744970397949218750e+02 2.744994812011718750e+02 2.744982604980468750e+02 2.744960632324218750e+02 2.744916992187500000e+02 2.744861755371093750e+02 2.744800415039061932e+02 2.744732971191406250e+02 2.744693603515625000e+02 2.744705200195311932e+02 2.744724426269531250e+02 2.744771423339843750e+02 2.744819641113281250e+02 2.744880371093750000e+02 2.744941101074218750e+02 2.745026550292968750e+02 2.745114440917968750e+02 2.745200805664061932e+02 2.745286865234375000e+02 2.745367126464843750e+02 2.745443725585938068e+02 2.745523376464843750e+02 2.745606384277343750e+02 2.745700683593750000e+02 2.745817871093750000e+02 2.745940246582031250e+02 2.746083984375000000e+02 2.746226806640625000e+02 2.746339721679688068e+02 2.746452636718750000e+02 2.746552734375000000e+02 2.746651611328125000e+02 2.746743469238281250e+02 2.746833190917968750e+02 2.746919555664061932e+02 2.747003479003906250e+02 2.747111511230468750e+02 2.747247314453125000e+02 2.747375183105468750e+02 2.747485351562500000e+02 2.747582092285156250e+02 2.747613220214843750e+02 2.747648620605468750e+02
2.731710510253906250e+02 2.731831665039061932e+02 2.731952819824218750e+02 2.732074890136718750e+02 2.732197570800781250e+02 2.732321166992188068e+02 2.732445068359375000e+02 2.732550048828125000e+02 2.732642517089843750e+02 2.732717895507811932e+02 2.732772521972656250e+02 2.732805175781250000e+02 2.732789001464843750e+02 2.732774963378906250e+02 2.732773437500000000e+02 2.732772827148438068e+02 2.732835998535156250e+02 2.732899169921875000e+02 2.733054809570311932e+02 2.733223571777343750e+02 2.733435058593750000e+02 2.733662109375000000e+02 2.733909912109375000e+02 2.734172668457031250e+02 2.734453430175781250e+02 2.734757385253906250e+02 2.735111083984375000e+02 2.735583801269531250e+02 2.736059265136718750e+02 2.736549072265625000e+02 2.737038879394531250e+02 2.737508239746093750e+02 2.737977294921875000e+02 2.738321838378906250e+02 2.738645324707031250e+02 2.738831176757811932e+02 2.738960266113281250e+02 2.739050292968750000e+02 2.739109191894531250e+02 2.739167785644531250e+02 2.739225158691406250e+02 2.739302368164061932e+02 2.739433288574218750e+02 2.739560546875000000e+02 2.739661560058593750e+02 2.739762268066406250e+02 2.739806823730468750e+02 2.739850463867188068e+02 2.739932556152343750e+02 2.740022277832031250e+02 2.740168762207031250e+02 2.740341186523438068e+02 2.740546875000000000e+02 2.740780944824218750e+02 2.740994567871093750e+02 2.741177673339843750e+02 2.741338195800781250e+02 2.741430664062500000e+02 2.741522216796875000e+02 2.741605834960938068e+02 2.741689453125000000e+02 2.741888122558593750e+02 2.742091979980468750e+02 2.742367553710938068e+02 2.742659301757811932e+02 2.742918395996093750e+02 2.743161621093750000e+02 2.743335876464843750e+02 2.743447570800781250e+02 2.743600769042968750e+02 2.743822631835938068e+02 2.744034423828125000e+02 2.744210815429688068e+02 2.744381713867188068e+02 2.744493103027343750e+02 2.744604492187500000e+02 2.744628601074218750e+02 2.744646911621093750e+02 2.744640808105468750e+02 2.744628295898438068e+02 2.744601440429688068e+02 2.744566955566406250e+02 2.744527587890625000e+02 2.744483642578125000e+02 2.744464111328125000e+02 2.744488830566406250e+02 2.744520568847656250e+02 2.744578552246093750e+02 2.744637451171875000e+02 2.744712219238281250e+02 2.744787292480468750e+02 2.744883422851561932e+02 2.744981689453125000e+02 2.745075378417968750e+02 2.745167541503906250e+02 2.745250854492188068e+02 2.745328979492188068e+02 2.745400085449218750e+02 2.745464172363281250e+02 2.745541381835938068e+02 2.745643615722656250e+02 2.745751953125000000e+02 2.745884704589843750e+02 2.746016235351561932e+02 2.746112976074218750e+02 2.746210021972656250e+02 2.746293945312500000e+02 2.746376342773438068e+02 2.746455688476561932e+02 2.746533813476561932e+02 2.746618652343750000e+02 2.746707458496093750e+02 2.746826782226561932e+02 2.746981811523438068e+02 2.747125549316406250e+02 2.747245178222656250e+02 2.747346496582031250e+02 2.747359924316406250e+02 2.747376708984375000e+02
2.731308898925781250e+02 2.731428222656250000e+02 2.731547241210938068e+02 2.731669006347656250e+02 2.731791076660156250e+02 2.731921081542968750e+02 2.732053833007811932e+02 2.732154235839843750e+02 2.732233276367188068e+02 2.732293395996093750e+02 2.732330627441406250e+02 2.732351989746093750e+02 2.732337951660156250e+02 2.732330322265625000e+02 2.732355041503906250e+02 2.732381286621093750e+02 2.732472839355468750e+02 2.732564086914061932e+02 2.732741394042968750e+02 2.732931213378906250e+02 2.733161010742188068e+02 2.733406066894531250e+02 2.733675231933593750e+02 2.733961791992188068e+02 2.734269714355468750e+02 2.734604187011718750e+02 2.734985046386718750e+02 2.735478210449218750e+02 2.735970458984375000e+02 2.736456298828125000e+02 2.736942138671875000e+02 2.737389221191406250e+02 2.737836608886718750e+02 2.738147888183593750e+02 2.738435974121093750e+02 2.738618164062500000e+02 2.738757019042968750e+02 2.738865051269531250e+02 2.738948974609375000e+02 2.739031677246093750e+02 2.739112243652343750e+02 2.739203491210938068e+02 2.739324340820311932e+02 2.739439086914061932e+02 2.739512329101561932e+02 2.739585876464843750e+02 2.739586791992188068e+02 2.739586486816406250e+02 2.739652404785156250e+02 2.739731750488281250e+02 2.739858703613281250e+02 2.740007324218750000e+02 2.740185546875000000e+02 2.740388793945311932e+02 2.740586853027343750e+02 2.740776977539061932e+02 2.740940246582031250e+02 2.741023864746093750e+02 2.741107482910156250e+02 2.741190490722656250e+02 2.741273803710938068e+02 2.741525268554688068e+02 2.741784057617188068e+02 2.742069702148438068e+02 2.742361450195311932e+02 2.742613830566406250e+02 2.742846374511718750e+02 2.743013610839843750e+02 2.743121643066406250e+02 2.743269042968750000e+02 2.743481750488281250e+02 2.743685607910156250e+02 2.743859558105468750e+02 2.744028625488281250e+02 2.744145202636718750e+02 2.744262084960938068e+02 2.744284057617188068e+02 2.744300231933593750e+02 2.744301452636718750e+02 2.744299316406250000e+02 2.744288024902343750e+02 2.744272155761718750e+02 2.744252319335938068e+02 2.744228515625000000e+02 2.744224243164061932e+02 2.744255371093750000e+02 2.744292907714843750e+02 2.744354553222656250e+02 2.744417724609375000e+02 2.744503784179688068e+02 2.744589843750000000e+02 2.744694213867188068e+02 2.744799804687500000e+02 2.744899291992188068e+02 2.744996948242188068e+02 2.745084228515625000e+02 2.745165100097656250e+02 2.745234985351561932e+02 2.745292968750000000e+02 2.745363464355468750e+02 2.745458679199218750e+02 2.745559692382811932e+02 2.745684509277343750e+02 2.745807495117188068e+02 2.745893554687500000e+02 2.745979309082031250e+02 2.746054687500000000e+02 2.746128540039061932e+02 2.746201782226561932e+02 2.746275024414061932e+02 2.746358947753906250e+02 2.746449890136718750e+02 2.746576538085938068e+02 2.746744995117188068e+02 2.746900634765625000e+02 2.747027282714843750e+02 2.747133178710938068e+02 2.747136535644531250e+02 2.747142639160156250e+02
2.730901489257811932e+02 2.731021423339843750e+02 2.731141357421875000e+02 2.731263732910156250e+02 2.731386413574218750e+02 2.731520080566406250e+02 2.731657104492188068e+02 2.731751403808593750e+02 2.731817321777343750e+02 2.731863708496093750e+02 2.731887207031250000e+02 2.731901550292968750e+02 2.731896057128906250e+02 2.731900329589843750e+02 2.731952514648438068e+02 2.732005920410156250e+02 2.732123718261718750e+02 2.732241516113281250e+02 2.732438354492188068e+02 2.732646179199218750e+02 2.732893981933593750e+02 2.733157043457031250e+02 2.733446350097656250e+02 2.733754577636718750e+02 2.734084777832031250e+02 2.734443969726561932e+02 2.734845886230468750e+02 2.735351562500000000e+02 2.735852050781250000e+02 2.736324157714843750e+02 2.736795959472656250e+02 2.737211914062500000e+02 2.737627868652343750e+02 2.737903442382811932e+02 2.738155517578125000e+02 2.738343200683593750e+02 2.738504333496093750e+02 2.738643798828125000e+02 2.738766479492188068e+02 2.738882751464843750e+02 2.738990173339843750e+02 2.739093933105468750e+02 2.739187316894531250e+02 2.739272460937500000e+02 2.739302062988281250e+02 2.739331359863281250e+02 2.739278259277343750e+02 2.739223632812500000e+02 2.739281921386718750e+02 2.739362487792968750e+02 2.739478454589843750e+02 2.739609985351561932e+02 2.739764709472656250e+02 2.739938354492188068e+02 2.740118408203125000e+02 2.740307617187500000e+02 2.740470275878906250e+02 2.740554809570311932e+02 2.740640563964843750e+02 2.740736389160156250e+02 2.740831909179688068e+02 2.741129455566406250e+02 2.741435241699218750e+02 2.741721191406250000e+02 2.742002563476561932e+02 2.742245178222656250e+02 2.742467956542968750e+02 2.742641296386718750e+02 2.742768859863281250e+02 2.742927856445311932e+02 2.743137817382811932e+02 2.743339233398438068e+02 2.743511047363281250e+02 2.743678588867188068e+02 2.743796386718750000e+02 2.743914489746093750e+02 2.743937683105468750e+02 2.743954772949218750e+02 2.743964843750000000e+02 2.743973083496093750e+02 2.743976440429688068e+02 2.743977050781250000e+02 2.743974304199218750e+02 2.743967895507811932e+02 2.743974609375000000e+02 2.744005737304688068e+02 2.744042968750000000e+02 2.744102172851561932e+02 2.744164123535156250e+02 2.744258422851561932e+02 2.744352722167968750e+02 2.744462280273438068e+02 2.744573059082031250e+02 2.744677124023438068e+02 2.744779357910156250e+02 2.744871215820311932e+02 2.744956970214843750e+02 2.745031738281250000e+02 2.745094909667968750e+02 2.745168762207031250e+02 2.745263671875000000e+02 2.745363464355468750e+02 2.745483093261718750e+02 2.745600891113281250e+02 2.745680541992188068e+02 2.745760192871093750e+02 2.745833435058593750e+02 2.745906066894531250e+02 2.745979309082031250e+02 2.746052856445311932e+02 2.746137084960938068e+02 2.746227722167968750e+02 2.746358337402343750e+02 2.746534729003906250e+02 2.746697387695311932e+02 2.746830139160156250e+02 2.746940307617188068e+02 2.746940612792968750e+02 2.746943054199218750e+02
